-2.217075 -0.124791 -1.442490 
-2.216896 -0.125030 -1.442341 
-2.194351 -0.149944 -1.424177 
-2.191430 -0.153163 -1.421897 
-2.152732 -0.195244 -1.392139 
0.166887 -1.342991 0.133144 
-2.126178 -0.223973 -1.372067 
0.161746 -1.342872 0.133278 
0.148648 -1.342633 0.134097 
-2.100667 -0.251272 -1.353426 
0.131065 -1.342395 0.135990 
-2.074858 -0.278571 -1.335187 
-2.062624 -0.291565 -1.326589 
0.113601 -1.342276 0.138583 
-2.043208 -0.311831 -1.313387 
-2.022704 -0.333050 -1.299990 
-2.004719 -0.351647 -1.288368 
-1.996031 -0.360587 -1.282914 
-1.974007 -0.382999 -1.269428 
-1.969254 -0.387767 -1.266582 
-1.941612 -0.415662 -1.250116 
-1.888266 -0.468949 -1.219673 
-1.856467 -0.500420 -1.202120 
-1.836782 -0.519851 -1.191406 
-1.797473 -0.558356 -1.170663 
-1.792213 -0.563482 -1.167951 
0.084588 -1.342157 0.142800 
-1.758209 -0.596622 -1.150338 
0.079388 -1.342157 0.143589 
0.056827 -1.341918 0.146555 
3.068039 3.583333 -1.471398 
3.069827 3.574988 -1.474945 
3.063926 3.602764 -1.462547 
3.062809 3.608009 -1.460282 
3.061497 3.614208 -1.457585 
3.056655 3.637096 -1.447557 
3.054494 3.647348 -1.442773 
3.050918 3.664157 -1.434742 
3.045672 3.689191 -1.422597 
3.044019 3.696939 -1.418738 
3.042603 3.703734 -1.415251 
3.036165 3.734490 -1.399843 
3.035078 3.739616 -1.397131 
3.030980 3.759166 -1.387013 
3.030935 3.759405 -1.386924 
3.030846 3.759882 -1.386670 
3.026852 3.778955 -1.376210 
3.025481 3.785631 -1.372604 
3.021130 3.806493 -1.360772 
3.020177 3.811142 -1.358224 
3.016645 3.828069 -1.348538 
3.014753 3.837249 -1.343442 
-1.673540 -0.679115 -1.106469 
3.012413 3.848454 -1.336841 
3.008956 3.865263 -1.327021 
3.007883 3.870389 -1.323862 
3.003919 3.889581 -1.312612 
3.002772 3.895184 -1.309199 
2.998898 3.914019 -1.297711 
2.998734 3.914735 -1.297219 
2.995630 3.929816 -1.288166 
2.993533 3.940007 -1.282049 
2.992580 3.944537 -1.279129 
2.991492 3.949901 -1.275776 
2.987021 3.971597 -1.262425 
2.983430 3.989002 -1.251711 
-1.653200 -0.698665 -1.096619 
2.982596 3.993055 -1.249133 
2.981568 3.998062 -1.245944 
-1.645973 -0.705579 -1.093103 
2.977723 4.016778 -1.234366 
2.962063 3.975307 -1.204939 
2.976799 4.021308 -1.231609 
2.972299 4.043123 -1.218079 
2.966383 4.071853 -1.200168 
2.964834 4.079363 -1.195444 
2.961987 4.093310 -1.186518 
2.957487 4.115126 -1.173301 
2.952049 4.141471 -1.157014 
2.948949 4.156610 -1.147403 
2.946848 4.166862 -1.141114 
2.944836 4.176518 -1.135258 
2.940858 4.195830 -1.123918 
2.939308 4.203341 -1.119388 
2.935598 4.221222 -1.109121 
2.933601 4.230878 -1.103459 
2.931157 4.242560 -1.096977 
2.928654 4.254601 -1.090495 
2.926255 4.266045 -1.084490 
2.923364 4.279873 -1.077009 
2.920607 4.293105 -1.070334 
2.920100 4.295489 -1.069097 
2.919802 4.296920 -1.068382 
2.915243 4.318616 -1.057400 
2.899317 4.243037 -1.034840 
2.914468 4.322311 -1.055671 
2.910400 4.341623 -1.046447 
2.909029 4.348061 -1.043422 
2.903858 4.372499 -1.032082 
2.903784 4.372856 -1.031889 
2.903769 4.372975 -1.031844 
2.903754 4.373095 -1.031829 
2.903650 4.373571 -1.031621 
2.897451 4.402778 -1.018776 
2.895722 4.410884 -1.015438 
2.892891 4.424116 -1.009895 
2.890358 4.436037 -1.005305 
2.888257 4.445812 -1.001401 
2.886036 4.456183 -0.997273 
2.881030 4.479548 -0.988541 
2.878988 4.489085 -0.984816 
-0.928072 0.189766 0.007285 
-0.790421 0.194754 0.030171 
0.154509 1.238621 0.842745 
0.047185 1.251521 0.814743 
0.073337 1.166696 0.817198 
-0.064481 0.411246 0.590117 
-0.148226 0.465148 0.628489 
0.083615 0.463636 0.696782 
-0.189811 1.270218 0.683614 
-0.183364 1.357887 0.726681 
-0.124534 1.307241 0.730457 
-0.025915 1.248580 0.778781 
0.005621 1.334398 0.811662 
-0.354408 3.110341 0.148067 
-0.065608 1.404060 0.805807 
-0.271466 1.425327 0.782073 
-0.081876 1.469494 0.863844 
-0.148908 1.425342 0.794348 
-0.341042 0.297046 0.313548 
-1.394474 3.569959 0.231543 
-0.334454 1.307733 0.566461 
-0.835027 0.451211 0.177529 
-0.384173 1.269237 0.525514 
-0.447606 1.341120 0.485788 
-0.511521 0.308281 0.191110 
-0.477098 1.401272 0.501973 
-0.626156 1.381673 0.365640 
-0.519197 1.324600 0.426775 
-0.563694 1.417134 0.406166 
-0.281333 1.282146 0.614349 
-0.240277 1.322940 0.670268 
-0.252551 1.364071 0.711379 
-0.296333 1.328519 0.629677 
-0.736032 0.323560 0.064348 
-0.383734 1.367097 0.586450 
-0.475135 1.445529 0.579327 
-0.534041 1.441772 0.445108 
-0.614272 1.536656 0.391181 
-0.571740 1.539476 0.442297 
-0.649880 0.305156 0.076750 
-0.560986 1.613353 0.505573 
-0.552502 1.578191 0.533208 
-0.589627 1.620505 0.431971 
-0.577162 1.703494 0.439965 
-0.553917 1.690147 0.509978 
-0.527786 1.824472 0.499396 
-0.568538 0.256635 0.126232 
-0.528467 1.768749 0.555540 
-0.617534 0.181092 0.109120 
-0.674169 0.266432 0.060419 
-0.288404 1.473716 0.849295 
-0.357864 1.453664 0.787446 
-0.431107 1.465649 0.731502 
-0.328523 1.566915 0.977041 
-0.416555 1.544392 0.843103 
-0.500242 0.284573 0.179003 
-0.463723 1.753498 0.763185 
-0.481586 1.509088 0.707886 
-0.353832 0.184794 0.299887 
-0.530931 1.500619 0.507571 
-0.537031 1.589272 0.656742 
-0.510659 1.547479 0.696515 
-0.533430 1.701372 0.679370 
-0.544717 1.641884 0.669319 
-0.353401 0.245394 0.296312 
0.056952 1.392076 0.870273 
0.164238 1.362480 0.929721 
-0.423993 0.301890 0.251150 
0.048269 1.451013 0.971377 
-0.042182 1.483423 0.962790 
0.000049 1.454462 0.904705 
0.082671 1.437917 1.108657 
-0.007500 1.466227 1.150991 
-0.060400 3.297934 0.510398 
-1.860135 2.896760 -0.356777 
0.072519 1.492647 1.284661 
-0.204597 1.500190 0.929516 
-0.079278 1.485260 0.913852 
-0.165182 1.497394 1.016828 
-0.019333 1.466692 1.090485 
-0.119546 1.489697 1.126554 
-0.402223 1.606049 0.911584 
-0.328574 1.674767 1.041493 
-0.309205 1.521964 0.929048 
-0.062713 0.315427 0.480512 
-0.171483 0.311809 0.438852 
-0.256488 1.523338 0.999592 
-0.466943 1.628023 0.808351 
-0.472415 1.689110 0.787246 
-0.118534 1.520083 1.180664 
-0.145059 1.574369 1.211749 
-0.224683 1.535203 1.095884 
-0.139618 0.267119 0.427155 
-0.250587 1.575339 1.106490 
-0.879708 0.266339 0.033385 
-0.756462 0.302193 0.042156 
-0.152388 3.236950 0.432926 
-0.171143 3.158893 0.421961 
-0.231875 3.242267 0.323520 
-0.176521 3.297529 0.406793 
-0.231308 3.337921 0.361336 
-0.267777 3.395069 0.359828 
-0.172171 3.411611 0.446626 
-1.008297 3.679213 0.407268 
-0.603569 3.042715 -0.029390 
-0.496090 3.218282 0.038767 
-0.442884 3.142347 0.059223 
-1.771464 2.874578 -0.302313 
-0.537729 3.113340 -0.000556 
-0.682039 3.033250 -0.047238 
-0.586269 3.238932 0.009768 
-0.748619 3.800035 0.579938 
-0.390532 3.266135 0.132044 
-0.579847 3.322731 0.062938 
-0.515743 3.280991 0.058485 
-0.478631 3.340757 0.121057 
-0.602154 3.147821 -0.024078 
-0.693799 3.109272 -0.040364 
-0.785735 3.184710 0.002974 
-0.669721 3.213447 -0.010486 
-0.664361 3.284061 0.025632 
-0.787251 3.879804 0.613727 
-0.046469 3.487176 0.539449 
-0.165785 3.551039 0.515963 
-0.207829 3.493495 0.463877 
-0.097704 3.451599 0.506620 
-1.789381 3.001257 -0.280344 
-1.541255 3.654669 0.267713 
-0.660907 3.676564 0.484199 
-1.544029 4.008949 0.292800 
-0.796832 3.654325 0.419515 
-1.628505 3.644860 0.223744 
-1.720792 3.603686 0.144323 
-1.594717 3.717422 0.285892 
-1.636334 3.756520 0.275239 
-1.535595 2.819179 -0.188395 
-1.722183 3.693921 0.206157 
-1.804004 3.750711 0.172588 
-1.780338 3.830860 0.192226 
-2.046457 3.028635 -0.482593 
-1.889888 3.011903 -0.369199 
-1.890248 3.089328 -0.340776 
-1.683338 2.795343 -0.254831 
-1.698398 3.024731 -0.175085 
-1.692311 3.105294 -0.115489 
-1.671633 2.920459 -0.223821 
-1.661568 2.843436 -0.242860 
1.221742 -1.268531 -0.384585 
1.340975 -1.188992 -0.491299 
1.488114 -1.061695 -0.607282 
1.375196 -1.101941 -0.450676 
1.355613 -1.048745 -0.383172 
1.396950 -0.935971 -0.375616 
0.403558 -1.309329 0.178684 
0.328345 -1.292928 0.190140 
0.210255 -1.045843 0.297725 
0.382000 -1.222611 0.235982 
0.477836 -1.308277 0.170656 
0.573599 -1.288993 0.157087 
0.382554 -1.177140 0.256670 
0.505029 -1.238534 0.207381 
0.697927 -1.314949 0.081074 
0.606152 -1.327308 0.118251 
0.617441 -1.243503 0.165281 
0.759178 -1.230638 0.096969 
0.378128 -1.062102 0.287436 
0.306258 -0.971350 0.306423 
0.336244 -0.869114 0.303745 
0.241999 0.008316 0.469635 
0.387481 -0.782308 0.281340 
0.532352 -1.143946 0.239456 
0.525292 -1.058966 0.257217 
0.643948 -1.063964 0.208487 
0.584757 -0.984383 0.239835 
0.672152 -1.150151 0.176363 
0.426113 -0.939269 0.291720 
0.559313 -0.793111 0.221936 
0.491084 -0.852257 0.263476 
0.676379 -0.829959 0.170544 
0.638565 -0.913087 0.210331 
1.014033 -1.323798 -0.167919 
0.854386 -1.258754 0.017022 
0.800590 -1.305287 0.025434 
0.798279 -1.146130 0.104133 
0.906505 -1.303168 -0.050829 
0.870621 -1.173566 0.044712 
0.997717 -1.206478 -0.069158 
1.131190 -1.201462 -0.201635 
1.235596 -1.209446 -0.335585 
1.106335 -1.273827 -0.227227 
1.090170 -1.163967 -0.136072 
1.234996 -1.116143 -0.270274 
1.038859 -1.261911 -0.140860 
1.129758 -1.050046 -0.134137 
0.700632 -0.995816 0.182504 
0.826874 -1.026736 0.105975 
0.742919 -1.069833 0.153479 
0.814194 -0.950396 0.112472 
0.999893 -1.100881 -0.031636 
0.917816 -1.065482 0.039472 
1.024720 -0.963027 -0.034515 
0.753184 -0.702306 0.085318 
0.874704 -0.878091 0.063246 
0.921790 -0.957080 0.042240 
0.972698 -0.811487 -0.014587 
0.969133 -0.703469 -0.031403 
1.034685 -1.020653 -0.046240 
1.216986 -1.049680 -0.222365 
1.313858 -0.931378 -0.284935 
1.230689 -0.903753 -0.203021 
1.190979 -0.832963 -0.166269 
1.090691 -0.809514 -0.093489 
1.066830 -0.759590 -0.082360 
1.332397 -0.790590 -0.267795 
1.396922 -0.717620 -0.302859 
0.327460 -0.692296 0.271419 
0.388716 -0.577245 0.213159 
0.315756 -0.544005 0.220153 
0.466905 -0.492198 0.171120 
0.220123 -0.408960 0.214806 
0.317583 -0.430457 0.206200 
0.365365 -0.473807 0.198202 
0.408541 -0.417920 0.193521 
0.295789 -0.295794 0.250692 
0.297627 -0.347852 0.224972 
0.409254 -0.348415 0.214654 
0.438585 -0.713007 0.246394 
0.495556 -0.612205 0.184364 
0.521721 -0.530511 0.152563 
0.666915 -0.647928 0.114045 
0.881935 -0.767105 0.029996 
0.798083 -0.638287 0.048912 
0.715237 -0.556623 0.081506 
0.748899 -0.478494 0.078876 
0.540494 -0.461372 0.150770 
0.533279 -0.401861 0.169961 
0.568367 -0.347951 0.189102 
0.734891 -0.422164 0.104259 
0.718281 -0.336961 0.151941 
0.300967 -0.242504 0.289508 
0.448115 -0.266115 0.264960 
0.333236 -0.090758 0.423203 
0.038954 -0.036703 0.455175 
0.417890 0.015530 0.457187 
0.357038 -0.024605 0.456539 
0.376813 0.096649 0.469105 
0.476157 -0.160542 0.349897 
0.570847 -0.286518 0.227942 
0.574889 -0.146685 0.335906 
0.807563 -0.206041 0.191018 
0.738943 -0.246487 0.199857 
0.651425 -0.257168 0.226809 
0.853596 -0.153675 0.191334 
2.221455 2.776531 -0.330963 
0.474213 -0.077516 0.410617 
0.640706 -0.095210 0.342408 
0.574297 -0.057496 0.385988 
0.531281 0.083856 0.425453 
0.613168 0.021459 0.388854 
0.479834 0.042029 0.447130 
0.632639 0.086697 0.375918 
0.717964 0.015524 0.326387 
0.896023 -0.614448 0.001080 
0.866545 -0.545305 0.018934 
1.072844 -0.682393 -0.090615 
1.170964 -0.699298 -0.148251 
1.012858 -0.583649 -0.054429 
0.907370 -0.415001 0.040419 
0.910530 -0.492932 0.012679 
1.094170 -0.298084 0.002134 
1.024314 -0.427628 -0.017928 
1.255974 -0.693198 -0.199823 
1.262672 -0.553510 -0.179541 
1.323766 -0.634863 -0.233333 
1.351164 -0.533375 -0.223891 
1.430913 -0.402938 -0.229358 
1.145344 -0.569448 -0.120046 
1.138031 -0.459816 -0.085883 
1.311714 -0.428335 -0.166482 
1.164471 -0.117981 0.019793 
1.078009 0.082585 0.070275 
1.205479 0.023110 0.010981 
1.458349 -0.121076 -0.142365 
1.108794 -0.205241 0.028263 
1.257942 -0.305424 -0.089874 
1.352123 -0.226000 -0.115146 
1.302122 -0.113567 -0.054296 
1.210863 -0.049926 0.004601 
1.224528 0.122814 0.002450 
1.286839 0.103944 -0.016101 
1.364535 0.029427 -0.055633 
0.881135 -0.286438 0.112465 
0.951121 -0.186790 0.122852 
1.051017 -0.039017 0.097637 
0.947167 -0.095212 0.153027 
0.731802 -0.050945 0.306854 
0.874483 0.032634 0.214493 
0.776653 0.078726 0.281916 
1.034659 0.030386 0.104695 
0.942233 -0.023536 0.166426 
1.710439 -1.116493 -1.175432 
1.700995 -1.124287 -1.170858 
1.775021 -1.063207 -1.206873 
1.649538 -1.167038 -1.145540 
1.617918 -1.193026 -1.130266 
1.630098 -1.120841 -1.017081 
1.621181 -1.190284 -1.131905 
2.418251 4.776479 -0.333776 
2.420047 4.776618 -0.335543 
1.738468 -1.093367 -1.189141 
1.925671 -0.938395 -1.280753 
1.687834 -1.135209 -1.164345 
1.696715 -1.127818 -1.168786 
1.865888 -0.988224 -1.251100 
1.811350 -1.033166 -1.224665 
1.841077 -1.008609 -1.239074 
1.669626 -1.132541 -1.120985 
1.763768 -1.021375 -1.113069 
1.878301 -0.977853 -1.257313 
2.086395 -0.803927 -1.361964 
1.950154 -0.917891 -1.293240 
1.915196 -0.930598 -1.248085 
1.911456 -0.950316 -1.273571 
1.980686 -0.892261 -1.308737 
1.781332 -0.928183 -1.007735 
1.809195 -0.848333 -0.953773 
2.113456 -0.781277 -1.375629 
2.184355 -0.721315 -1.412524 
2.366537 -0.560978 -1.517771 
2.395967 -0.533322 -1.537709 
2.143003 -0.728280 -1.349099 
2.324948 -0.598887 -1.491545 
2.236682 -0.633368 -1.380977 
2.000198 -0.837642 -1.258067 
2.037862 -0.844458 -1.337690 
2.132872 -0.764945 -1.385583 
2.084997 -0.728297 -1.251464 
2.038338 -0.695620 -1.138557 
2.126273 -0.580836 -1.152003 
2.022696 -0.576673 -1.002808 
2.485687 -0.446060 -1.603527 
2.434799 -0.496009 -1.565470 
2.418251 -0.511971 -1.553488 
2.410451 -0.519493 -1.547841 
2.456868 -0.474551 -1.581563 
2.419370 -0.457735 -1.484565 
2.731943 -0.183085 -1.823409 
2.709547 -0.209072 -1.799865 
2.553532 -0.377753 -1.657097 
2.501539 -0.408546 -1.586671 
2.555648 -0.375608 -1.658825 
2.611617 -0.317076 -1.706643 
2.582902 -0.347355 -1.681624 
2.603599 -0.287299 -1.648680 
2.534205 -0.397423 -1.641406 
2.587129 -0.241653 -1.564922 
2.783636 -0.056842 -1.802681 
2.755800 -0.154236 -1.850320 
2.763027 -0.142792 -1.855252 
2.756814 -0.153044 -1.851482 
2.728582 -0.116879 -1.731929 
2.768988 -0.119069 -1.839859 
2.778554 -0.079134 -1.815451 
2.775559 -0.092009 -1.823021 
2.788925 -0.033000 -1.789508 
2.815792 0.102779 -1.725106 
2.802083 0.030896 -1.757516 
2.804721 0.044247 -1.751198 
2.771012 -0.014456 -1.726125 
2.810860 0.076315 -1.736609 
2.684540 -0.100628 -1.619151 
2.671754 -0.196703 -1.691321 
2.672599 0.002349 -1.513705 
2.819965 0.126144 -1.715450 
2.317724 -0.555056 -1.419660 
2.230160 -0.564345 -1.288501 
2.358500 -0.487207 -1.411354 
2.379101 -0.388639 -1.344863 
2.518101 -0.295374 -1.488273 
2.244870 -0.454349 -1.206024 
2.056231 -0.452235 -0.952181 
2.324781 -0.223636 -1.141891 
2.247046 -0.364371 -1.136830 
2.344446 -0.087558 -1.083565 
2.460399 0.073738 -1.144143 
2.450145 -0.085526 -1.225216 
2.560237 0.008227 -1.325842 
2.478204 -0.202466 -1.347135 
2.376753 -0.293366 -1.262614 
2.608356 -0.104901 -1.480065 
2.645096 0.092992 -1.406332 
2.550444 0.117040 -1.244665 
1.537577 -1.158646 -0.879829 
1.416881 -1.169738 -0.614084 
1.637273 -0.985160 -0.819185 
1.730695 -1.009673 -1.034631 
1.634630 -1.050384 -0.909343 
1.519687 -1.093465 -0.721712 
1.486024 -1.006260 -0.543986 
1.721970 -0.900512 -0.870308 
1.654571 -0.820364 -0.665574 
1.650777 -0.906843 -0.747318 
1.842674 -0.772573 -0.923696 
1.753311 -0.810808 -0.822157 
1.887397 -0.586048 -0.824509 
1.880677 -0.673354 -0.886883 
1.758048 -0.714327 -0.739044 
1.449950 -0.975210 -0.464657 
1.588940 -0.730946 -0.503138 
1.647844 -0.734935 -0.585905 
1.403639 -0.845962 -0.346667 
1.565980 -0.696798 -0.456880 
1.500789 -0.588636 -0.348588 
1.566520 -0.619569 -0.421666 
1.441962 -0.586793 -0.300607 
1.812003 -0.442100 -0.614688 
1.798336 -0.566875 -0.682079 
1.728342 -0.499011 -0.540508 
1.870818 -0.280891 -0.591340 
1.960657 -0.456518 -0.828625 
2.014923 -0.351589 -0.830658 
2.119424 -0.240958 -0.896031 
2.028747 -0.190504 -0.748538 
2.032066 -0.064881 -0.680823 
2.047489 0.037879 -0.646602 
2.174608 -0.092060 -0.879515 
2.210783 0.072663 -0.839835 
1.871329 -0.121427 -0.497276 
2.139599 0.159621 -0.709450 
1.520699 -0.413764 -0.296025 
1.619327 -0.224419 -0.292764 
1.659400 -0.508653 -0.465027 
1.753660 -0.314807 -0.465542 
1.670438 -0.346496 -0.394877 
1.422323 -0.039041 -0.098651 
1.543199 -0.189957 -0.221849 
1.470840 0.094212 -0.073587 
1.625721 -0.017464 -0.203712 
1.534583 0.010494 -0.137502 
1.614522 -0.342135 -0.341755 
1.718463 -0.108715 -0.318965 
1.808505 -0.027812 -0.369924 
1.862134 -0.017071 -0.428908 
1.766979 0.044080 -0.291714 
1.893341 0.120140 -0.399781 
2.115614 0.361651 -0.585824 
1.995159 0.271247 -0.467862 
1.954286 0.416805 -0.356822 
2.045999 0.473820 -0.446273 
2.257612 0.591677 -0.657289 
2.031195 0.587511 -0.377843 
2.157690 0.700437 -0.476086 
2.035367 0.688234 -0.338878 
2.148161 0.838644 -0.399541 
2.066438 0.905087 -0.283157 
2.210832 1.079887 -0.360950 
2.844254 0.276586 -1.662029 
2.827281 0.168821 -1.698924 
2.753469 0.074774 -1.611781 
2.827862 0.172397 -1.697613 
2.833331 0.206014 -1.685558 
2.852136 0.329992 -1.645444 
2.858290 0.372788 -1.632718 
2.856174 0.358006 -1.637099 
2.841169 0.256440 -1.668645 
2.839351 0.244638 -1.672505 
2.863357 0.409505 -1.622511 
2.869317 0.453851 -1.610695 
2.803797 0.239624 -1.599295 
2.877975 0.520369 -1.593871 
2.866799 0.544662 -1.556653 
2.890551 0.620744 -1.570044 
2.884025 0.568053 -1.582308 
2.591582 0.326872 -1.194879 
2.728088 0.207381 -1.475934 
2.830856 0.418519 -1.548982 
2.772944 0.351171 -1.474190 
2.661240 0.277140 -1.325471 
2.906108 0.747105 -1.541061 
2.896586 0.670335 -1.558898 
2.827463 0.815623 -1.351001 
2.813692 0.523477 -1.460999 
2.917403 0.839493 -1.520036 
2.920503 0.864646 -1.514254 
2.883625 0.821339 -1.457945 
2.925897 0.907203 -1.503987 
2.932930 0.964186 -1.490844 
2.730313 0.441823 -1.353308 
2.697561 0.766355 -1.150312 
2.761451 0.784892 -1.247189 
2.939189 1.014492 -1.479058 
2.944956 1.061103 -1.468284 
2.950543 1.106283 -1.457764 
2.962107 1.196882 -1.435636 
2.813183 0.997093 -1.235002 
2.893918 1.058550 -1.359528 
2.966279 1.229188 -1.427559 
2.974177 1.290819 -1.412375 
2.975344 1.299763 -1.410102 
2.976978 1.312277 -1.406921 
2.981925 1.350304 -1.397325 
-2.491504 1.784068 -0.985102 
2.931558 1.309240 -1.305250 
2.999226 1.487395 -1.364438 
2.970828 1.490022 -1.295453 
3.004456 1.530549 -1.354812 
3.013739 1.609942 -1.338152 
2.989719 1.410982 -1.382334 
2.923798 1.537755 -1.165485 
3.028342 1.745126 -1.313759 
3.014157 1.613757 -1.337422 
2.985234 1.660161 -1.245760 
3.032247 1.782676 -1.307486 
3.020594 1.671812 -1.326425 
2.988942 1.801660 -1.192828 
3.032574 1.785895 -1.306994 
3.032388 1.784068 -1.307273 
3.034959 1.809975 -1.303313 
3.022889 1.692912 -1.322566 
2.388378 0.109938 -1.032651 
2.512218 0.239633 -1.127631 
2.462981 0.265107 -1.051265 
2.405153 0.479468 -0.883483 
2.251278 0.234299 -0.813622 
2.201967 0.432223 -0.664402 
2.290597 0.437019 -0.769700 
2.647959 0.473308 -1.206843 
2.550238 0.605599 -1.006455 
2.630145 0.929873 -0.968314 
2.399658 0.285135 -0.964572 
2.498024 0.700784 -0.894408 
2.620076 0.736752 -1.046051 
2.537890 0.847645 -0.876242 
2.421526 0.697839 -0.801737 
2.349615 0.911596 -0.599741 
2.448560 0.843534 -0.759185 
2.268167 0.862655 -0.528151 
2.281655 1.028777 -0.461520 
2.784534 1.134856 -1.113651 
2.721341 0.974290 -1.090299 
2.863916 1.232393 -1.208643 
2.792693 1.320581 -1.023552 
2.733955 1.451558 -0.837600 
2.740417 1.191036 -1.004469 
2.659290 1.111109 -0.914287 
2.569176 1.076707 -0.794769 
2.918675 1.790042 -1.033749 
2.863315 1.707055 -0.951989 
2.836156 1.522134 -0.990814 
2.804981 1.729005 -0.822406 
2.466225 1.056650 -0.665230 
2.575179 1.312056 -0.665360 
2.457661 1.240111 -0.555941 
2.176661 1.144185 -0.299346 
2.425930 1.341841 -0.470994 
2.383365 1.412022 -0.397828 
2.391960 1.699092 -0.306905 
2.670498 1.392117 -0.762553 
2.547124 1.407376 -0.579213 
2.602417 1.515977 -0.598997 
2.670581 1.607949 -0.651674 
2.755474 1.838955 -0.687044 
2.751900 1.659509 -0.757636 
2.673962 1.776467 -0.584337 
2.526858 1.620446 -0.461403 
2.609273 1.691435 -0.529956 
2.454454 1.687432 -0.364286 
1.128907 0.433777 0.223643 
0.902311 0.484289 0.463769 
1.051114 0.445692 0.299555 
1.100450 0.489615 0.306111 
0.926878 0.525046 0.477488 
0.972732 0.636744 0.488862 
0.892123 0.785338 0.563188 
1.071790 0.588993 0.395333 
1.115689 0.719611 0.397126 
1.065800 0.809373 0.438700 
1.014834 0.929579 0.464922 
1.223119 0.825433 0.330435 
0.554070 0.460282 0.625082 
0.401839 0.489823 0.698300 
0.379747 0.535962 0.738574 
0.296891 0.708540 0.798987 
0.376521 0.654364 0.788319 
0.461912 0.714829 0.784224 
0.521630 0.642872 0.750611 
0.568576 0.577289 0.708539 
0.367949 0.582784 0.765603 
0.367810 0.802828 0.804969 
0.568411 0.765802 0.755595 
0.450537 0.826672 0.797899 
0.490317 0.943791 0.784212 
0.562477 0.529340 0.680848 
0.660381 0.452752 0.578706 
0.701697 0.511436 0.610397 
0.829919 0.520311 0.542769 
0.705556 0.585685 0.651482 
0.878117 0.579215 0.542828 
0.651035 0.818376 0.715857 
0.625219 0.676726 0.718706 
0.761528 0.726708 0.648193 
0.805866 0.658075 0.613100 
0.787630 0.826699 0.633930 
0.643778 1.007556 0.697297 
0.739846 0.924833 0.654647 
0.579822 0.935986 0.744191 
0.864059 0.714933 0.580305 
0.860787 0.883519 0.581202 
0.293934 1.038922 0.819967 
0.388333 0.996475 0.809860 
0.268050 1.174385 0.831257 
0.432942 0.265672 0.457451 
0.461996 1.120381 0.774018 
0.377865 1.143626 0.805534 
0.571043 1.149931 0.704558 
0.626800 1.237773 0.662014 
0.859793 0.983995 0.564883 
0.870208 3.362830 0.208843 
0.841711 3.297545 0.174394 
0.637922 0.301938 0.392199 
1.161557 0.970120 0.356525 
1.169912 1.164565 0.318184 
1.015860 1.084223 0.423129 
1.012846 1.228297 0.383278 
1.062206 1.273611 0.348931 
0.785553 1.045014 0.600107 
0.708071 1.154936 0.614222 
0.796939 3.170035 0.159927 
1.036998 1.539231 0.382887 
1.054755 1.698125 0.367522 
0.370442 0.341615 0.531668 
0.460771 0.192126 0.440693 
0.316688 0.196797 0.472552 
0.724248 3.307140 0.316510 
0.290403 0.274002 0.491946 
0.178103 0.203221 0.485956 
0.738252 3.367383 0.341678 
0.968370 0.079258 0.138563 
0.742777 3.115935 0.241740 
1.163003 0.080733 0.027727 
0.572563 0.170649 0.395045 
0.511087 1.582865 1.276429 
0.716069 1.581500 1.068367 
0.322783 1.582982 1.410315 
0.310967 1.494546 1.329659 
0.402372 1.566012 1.347464 
0.374186 1.629048 1.410261 
0.439877 1.696415 1.394749 
0.150763 1.846391 1.479970 
0.032364 1.856868 1.419997 
0.400836 1.838657 1.426208 
0.700942 0.163230 0.318050 
0.869974 3.059329 0.087044 
0.712861 1.846140 1.061622 
0.806597 1.714680 0.955095 
0.756064 1.670067 1.042363 
0.635518 1.620662 1.185417 
0.491722 1.639605 1.331904 
0.650801 1.759634 1.193215 
0.687445 1.654915 1.135044 
0.491340 1.786257 1.367118 
0.582473 1.707160 1.275773 
1.233188 0.211422 0.010435 
1.364146 0.172378 -0.013966 
1.499445 0.212394 -0.031490 
1.576694 0.174304 -0.087818 
1.285473 0.411922 0.133981 
1.353458 0.480506 0.160030 
1.218170 0.468866 0.209067 
1.280243 0.523556 0.217327 
1.154396 0.545458 0.307663 
1.480681 0.418838 0.080670 
1.431424 0.270403 0.018430 
1.363172 0.403895 0.110189 
1.520875 0.542282 0.107974 
1.456072 0.780842 0.189678 
1.339772 0.845727 0.259268 
1.128157 0.644556 0.371748 
1.220528 0.657827 0.313251 
1.227203 0.592123 0.283683 
1.366217 0.711898 0.236287 
1.324641 0.645088 0.244583 
1.383109 0.557076 0.183608 
1.243007 0.751490 0.314661 
1.271780 0.916671 0.295950 
1.703444 0.040162 -0.235231 
1.646709 0.234383 -0.105778 
1.720428 0.335591 -0.126540 
1.838373 0.164041 -0.315815 
1.556434 0.388283 0.025898 
1.652314 0.424468 -0.030348 
1.768431 0.429118 -0.140952 
1.840285 0.589851 -0.167056 
1.910169 0.526351 -0.264096 
1.677348 0.551268 -0.014692 
1.735680 0.771110 -0.018096 
1.606863 0.595618 0.058580 
1.720009 0.842285 0.009814 
1.543326 0.661427 0.121674 
1.607714 0.862393 0.097910 
1.835515 0.705245 -0.127545 
1.843733 0.866419 -0.086940 
1.958174 0.891852 -0.180810 
1.985996 1.114057 -0.131146 
1.941265 0.689614 -0.237837 
1.137350 1.099312 0.346840 
1.240640 1.059435 0.297258 
1.340456 1.010975 0.251041 
1.312047 1.140425 0.259537 
1.205258 1.262076 0.292121 
1.451710 0.900719 0.195754 
1.538142 1.200085 0.168810 
1.456935 1.053404 0.196139 
1.561523 1.005654 0.138156 
1.653134 1.130146 0.104222 
1.396743 1.222425 0.227505 
1.636550 1.290120 0.132364 
1.550164 1.409739 0.179670 
1.501572 1.615710 0.199653 
1.610466 1.553652 0.157981 
1.460553 1.763021 0.201461 
1.680456 0.985996 0.064723 
1.804797 0.938513 -0.035142 
1.900626 1.123071 -0.058934 
1.808598 1.188036 0.020226 
1.878764 1.357668 0.000886 
1.917845 1.255234 -0.042352 
1.746554 1.311823 0.077420 
2.082431 1.151513 -0.205076 
2.262351 1.369877 -0.298979 
2.090429 1.297969 -0.168253 
1.844202 1.477993 0.035185 
2.053413 1.596981 -0.085471 
1.994276 1.413496 -0.070377 
2.014146 1.763648 -0.049128 
1.897948 1.637494 0.009626 
1.898398 1.778541 0.009719 
1.670972 1.457281 0.130415 
1.736205 1.559546 0.099347 
2.272969 1.498020 -0.267206 
2.175829 1.512866 -0.183946 
1.996378 1.638996 -0.046669 
2.113830 1.559394 -0.130026 
2.364326 1.782376 -0.264462 
3.047043 1.935503 -1.285551 
3.041664 1.878521 -1.293285 
3.033171 1.907473 -1.260389 
3.054881 2.019665 -1.274435 
3.045330 1.917145 -1.287965 
3.041560 1.877567 -1.293434 
3.073329 2.227446 -1.250042 
3.073776 2.233049 -1.249565 
3.071466 2.204797 -1.252217 
3.063301 2.110740 -1.262663 
3.066355 2.144834 -1.258550 
3.089184 2.508303 -1.246749 
3.089094 2.504608 -1.246451 
3.053808 2.505275 -1.162199 
3.091240 2.668759 -1.267819 
3.091285 2.651951 -1.264794 
3.086591 2.436301 -1.242785 
3.066366 2.395834 -1.197506 
3.058002 2.295511 -1.193869 
3.057424 2.619197 -1.179952 
3.081182 2.336046 -1.243157 
3.087902 2.469441 -1.244230 
3.091280 2.648603 -1.264220 
3.088916 2.498290 -1.245899 
3.090361 2.555391 -1.251085 
3.091017 2.602002 -1.257015 
3.078068 2.290150 -1.245407 
3.082985 2.366921 -1.242561 
3.083447 2.374312 -1.242338 
3.084877 2.400896 -1.242278 
3.076324 2.265832 -1.246912 
-2.629873 3.331650 -1.369272 
3.091270 2.642295 -1.263140 
3.089988 2.775332 -1.290364 
3.087813 2.864262 -1.312910 
3.055987 2.779752 -1.211105 
3.090525 2.745172 -1.283420 
3.090495 2.747199 -1.283823 
3.026115 2.865674 -1.174317 
3.090495 2.747795 -1.283972 
3.088826 2.826831 -1.303105 
2.984297 3.020380 -1.137036 
3.077396 2.920095 -1.305155 
3.065962 3.106574 -1.345580 
2.978900 3.166052 -1.163016 
3.084281 2.978346 -1.344217 
3.085086 2.953431 -1.337288 
3.086815 2.898356 -1.322044 
3.074430 3.331650 -1.437630 
3.074402 3.333470 -1.438035 
3.074789 3.307959 -1.432357 
3.075669 3.259918 -1.421152 
3.076861 3.205320 -1.407815 
3.073731 3.386995 -1.449494 
3.073225 3.437182 -1.459835 
3.073031 3.485224 -1.468761 
3.073836 3.378412 -1.447676 
3.021913 3.147652 -1.253515 
3.079558 3.111145 -1.382647 
3.058534 3.220398 -1.364202 
3.052927 3.329429 -1.378715 
3.078217 3.155252 -1.394687 
3.003038 3.364951 -1.259904 
3.020029 2.083651 -1.161982 
2.955045 2.007873 -1.030697 
2.990102 2.212466 -1.052168 
2.817348 1.906863 -0.773129 
2.866871 1.904114 -0.871650 
2.895685 2.100149 -0.870735 
2.826999 2.199788 -0.714562 
2.905289 2.222334 -0.865650 
2.568109 1.807571 -0.441199 
2.605015 1.936813 -0.449222 
2.536687 1.881054 -0.388864 
2.540086 2.001495 -0.372093 
2.465039 1.862761 -0.328199 
2.559101 2.144768 -0.375853 
2.796550 1.995351 -0.704845 
2.660350 1.921865 -0.518353 
2.715415 1.975907 -0.580082 
2.769194 2.160415 -0.621270 
2.724463 2.109889 -0.565704 
2.649086 2.083948 -0.473597 
3.001678 2.339266 -1.054437 
2.998029 2.646240 -1.061509 
2.992022 2.500499 -1.029105 
2.935467 2.349500 -0.915812 
2.875467 2.537799 -0.825790 
2.873811 2.399265 -0.798758 
2.810994 2.551884 -0.727756 
2.531113 2.314807 -0.361671 
2.403066 2.274568 -0.270902 
2.599639 2.294765 -0.418448 
2.510494 2.533679 -0.403568 
2.528847 2.451100 -0.391348 
2.599863 2.543092 -0.479138 
2.801131 2.325614 -0.667507 
2.742803 2.337590 -0.582264 
2.656898 2.328386 -0.480586 
2.608873 2.409853 -0.447186 
2.687430 2.214191 -0.508459 
2.802330 2.444194 -0.685849 
2.735834 2.445141 -0.594815 
2.742207 2.546539 -0.631626 
2.673022 2.444611 -0.521158 
2.669617 2.598618 -0.568094 
2.337699 2.694062 -0.369226 
2.977052 2.747027 -1.049358 
2.886440 2.697831 -0.890345 
2.779034 2.856995 -0.791814 
2.767869 2.765459 -0.749284 
2.888927 2.884427 -0.948421 
2.836488 2.758940 -0.837720 
2.948300 2.928347 -1.051930 
2.811033 2.937168 -0.848458 
2.814185 3.044190 -0.851377 
2.890552 3.030261 -0.973230 
2.943899 3.107840 -1.079176 
2.899327 3.184414 -0.993440 
2.926011 3.266694 -1.057628 
2.857671 3.133329 -0.912779 
2.820763 3.545781 -0.683766 
2.596647 2.804927 -0.582209 
2.339552 2.845805 -0.407950 
2.524254 2.813524 -0.526048 
2.439427 2.768898 -0.452882 
2.655034 2.970210 -0.661207 
2.568245 2.921051 -0.580581 
2.545960 2.867669 -0.556829 
2.617956 3.008488 -0.616883 
2.450534 2.899672 -0.487212 
2.506145 3.031592 -0.508335 
2.661501 2.851905 -0.657298 
2.689540 2.781562 -0.664262 
2.740658 2.992158 -0.758585 
2.712845 2.903570 -0.722151 
2.592141 3.040350 -0.579478 
2.396773 3.147090 -0.349103 
2.474140 3.085740 -0.455280 
2.547070 3.146273 -0.477612 
2.542583 3.201245 -0.432318 
2.744373 3.236401 -0.650481 
2.628280 3.125905 -0.571420 
2.618496 3.229187 -0.484381 
2.746569 3.377419 -0.551048 
2.684841 3.165608 -0.612894 
2.703347 3.070856 -0.690778 
2.798872 3.134686 -0.802753 
2.689184 3.287934 -0.521238 
2.623048 3.411554 -0.331226 
3.036129 3.435694 -1.359132 
3.073061 3.559729 -1.481606 
3.073016 3.536245 -1.477687 
3.034803 3.608026 -1.386606 
2.945260 3.363762 -1.115827 
3.009578 3.743234 -1.331445 
2.942404 3.780349 -1.164252 
3.003350 3.853467 -1.314262 
2.691744 3.545399 -0.344874 
1.255651 1.525891 0.266888 
1.103945 1.512346 0.326585 
1.178387 1.389016 0.294163 
1.189332 1.545463 0.287255 
1.310175 1.309988 0.256278 
2.895001 4.133815 -1.036780 
1.434405 1.497548 0.223903 
2.797185 4.176302 -0.823680 
2.860125 4.245173 -0.956185 
2.930644 3.917241 -1.136420 
1.792071 2.881527 -0.078080 
2.683059 3.787067 -0.370830 
2.670896 3.637007 -0.289306 
2.704591 4.103281 -0.611684 
2.696413 4.235902 -0.621538 
2.648232 4.056677 -0.472945 
1.069577 1.369230 0.338263 
2.816987 3.724327 -0.723277 
2.628568 3.975484 -0.388301 
2.652044 4.171426 -0.524657 
2.554672 4.266833 -0.388815 
2.592367 4.138266 -0.407827 
2.452951 4.504537 -0.314011 
2.425676 4.655204 -0.315083 
2.373407 4.593983 -0.248849 
2.501990 4.758269 -0.417348 
2.480814 4.781506 -0.399543 
2.508352 4.783890 -0.430090 
2.518589 4.784724 -0.441907 
2.477014 4.781148 -0.395445 
2.495507 4.782698 -0.415547 
2.452770 4.779121 -0.369175 
2.430314 4.777333 -0.345973 
2.857426 4.448676 -0.947646 
2.883016 4.357626 -0.995864 
2.877379 4.496595 -0.982134 
3.072986 3.521582 -1.475228 
3.073061 3.474375 -1.466854 
3.073269 3.430506 -1.458539 
3.073523 3.407857 -1.453800 
3.075207 3.282806 -1.426620 
3.076250 3.231904 -1.414402 
3.077338 3.187558 -1.403151 
2.803113 4.452516 -0.846822 
2.810269 4.326229 -0.856090 
3.079573 3.111026 -1.382602 
3.079573 3.110787 -1.382528 
2.856636 4.592797 -0.949590 
2.837486 4.566298 -0.914701 
2.867976 4.540345 -0.966771 
3.079602 3.109833 -1.382275 
2.867321 4.543325 -0.965772 
2.845326 4.645011 -0.933392 
3.085831 2.930304 -1.330836 
2.859318 4.580400 -0.953524 
2.839813 4.670283 -0.926165 
2.770586 4.646249 -0.800121 
2.722225 4.373127 -0.686772 
2.651698 4.329178 -0.555654 
2.681032 4.762125 -0.660264 
2.691927 4.570840 -0.653217 
2.619312 4.364412 -0.507505 
2.563550 4.378521 -0.427001 
2.539108 4.584982 -0.430014 
-2.637690 3.441712 -1.427187 
3.087232 2.884409 -1.318274 
-2.635753 3.414652 -1.413209 
3.088156 2.850911 -1.309453 
-2.635634 3.412863 -1.412300 
3.090003 2.775094 -1.290305 
-2.634635 3.399154 -1.405133 
3.090033 2.773067 -1.289843 
-2.634158 3.392359 -1.401512 
3.091106 2.693793 -1.272602 
0.017488 -1.341441 0.151010 
3.091196 2.678296 -1.269637 
3.091210 2.623102 -1.260026 
3.090793 2.581736 -1.254244 
-2.626440 3.282687 -1.342846 
-0.008574 -1.341084 0.152932 
3.090063 2.540013 -1.249416 
2.824435 4.740855 -0.906793 
2.793396 4.818699 -0.863625 
2.805108 4.820368 -0.884084 
-2.625516 3.269336 -1.335455 
3.089661 2.524993 -1.248134 
-0.019660 -1.340845 0.153454 
2.833450 4.699609 -0.918059 
-2.622684 3.228208 -1.312492 
2.807661 4.752820 -0.878947 
2.770403 4.815361 -0.822542 
2.781773 4.817030 -0.843002 
3.088335 2.479693 -1.244633 
-2.621552 3.211757 -1.303209 
3.086710 2.439043 -1.242874 
2.846042 4.641673 -0.934286 
3.085518 2.413770 -1.242397 
2.681011 4.802725 -0.667540 
2.748722 4.812142 -0.783695 
2.736742 4.810473 -0.762506 
2.738463 4.773109 -0.758944 
2.728233 4.809162 -0.747679 
2.698744 4.805109 -0.697283 
2.668137 4.801056 -0.646634 
2.599785 4.792711 -0.543816 
2.617052 4.711783 -0.554089 
2.653250 4.799029 -0.622956 
2.613062 4.794261 -0.562592 
2.610752 4.794023 -0.559298 
2.647171 4.798314 -0.613419 
2.633551 4.796645 -0.592707 
2.552951 4.787943 -0.482930 
2.535397 4.786274 -0.461472 
2.578283 4.790446 -0.515146 
2.555245 4.788181 -0.485806 
0.814340 1.907424 0.756818 
0.794530 2.091123 0.697639 
0.876551 2.167009 0.533847 
0.864113 2.303794 0.518416 
0.824981 2.615576 0.448481 
0.783586 2.223155 0.667711 
0.824291 2.201191 0.607776 
0.819873 2.411511 0.546032 
0.802391 2.550101 0.515771 
0.637528 2.600019 0.753778 
1.068466 1.868621 0.344179 
1.139156 2.011602 0.299192 
1.091175 2.112482 0.317941 
1.168318 1.879406 0.293251 
2.869310 3.459844 -0.881829 
1.253607 1.943436 0.251061 
1.266968 2.105659 0.213637 
1.219260 2.162379 0.225780 
1.013842 1.875230 0.387243 
0.975523 1.913969 0.426712 
0.935452 1.945149 0.481437 
0.916516 1.896286 0.537840 
0.871880 1.873697 0.657392 
0.918375 1.821635 0.596826 
0.871077 2.053839 0.564224 
0.850585 1.959954 0.636432 
0.958078 2.113294 0.437162 
0.917492 2.067789 0.492218 
0.941276 2.203717 0.443681 
1.045364 2.039858 0.359688 
1.148974 2.215652 0.256595 
1.026569 2.536701 0.245464 
1.114177 2.464942 0.201613 
1.193650 2.456134 0.146762 
1.196869 2.333271 0.190594 
1.292572 2.271226 0.157284 
1.214012 2.560531 0.076619 
1.273441 2.412703 0.118101 
1.105109 2.333902 0.255648 
1.079554 2.234910 0.304148 
0.965118 2.425627 0.355589 
0.930391 2.301418 0.433409 
1.011945 2.230597 0.365572 
1.036407 2.418402 0.287436 
0.888183 2.563986 0.388597 
0.953529 2.540272 0.320966 
0.888088 2.452752 0.437528 
0.570786 2.083734 1.150941 
0.509277 2.244612 1.107258 
0.258759 2.118676 1.368211 
0.281910 1.800835 1.490469 
0.315302 2.079687 1.372323 
0.551819 1.921053 1.273168 
0.474259 2.040838 1.290476 
0.576199 1.813989 1.280826 
0.485255 1.897891 1.348259 
0.392356 1.925635 1.407471 
0.544928 2.054365 1.206155 
0.405069 2.023962 1.356023 
0.567917 2.233582 1.035065 
0.531497 2.339256 1.013741 
0.509232 2.453074 0.984743 
0.573789 2.463075 0.895841 
0.560257 2.649050 0.843527 
0.281552 2.295069 1.253476 
0.122902 3.393980 0.592414 
0.437820 2.290673 1.151615 
0.406108 2.438687 1.095743 
0.461557 2.412413 1.055941 
0.362714 2.241952 1.244381 
0.345677 2.354158 1.187539 
0.458273 2.560821 0.995340 
0.344802 2.484011 1.115815 
0.801739 1.793088 0.909011 
0.723078 1.915359 0.985688 
0.729381 2.048623 0.859694 
0.675958 2.181290 0.883283 
0.616493 2.068369 1.087929 
0.670416 1.799879 1.159286 
0.658916 2.004822 1.057604 
0.628327 1.905300 1.182504 
0.597588 2.353961 0.911416 
0.724522 2.199991 0.784658 
0.685200 2.382382 0.762194 
0.624063 2.237984 0.939387 
0.835803 2.959679 0.164087 
0.846378 2.869282 0.214392 
0.825797 2.723641 0.374249 
0.882708 2.683612 0.321515 
0.759227 2.781497 0.439273 
0.749718 2.679750 0.531119 
0.660169 2.879973 0.546053 
0.768976 2.934247 0.286302 
0.531450 3.219032 0.521883 
0.758945 3.021584 0.244056 
0.591677 3.103893 0.503534 
0.987312 2.624292 0.233514 
0.989571 2.782930 0.105466 
1.059890 2.626760 0.155987 
0.918500 2.847309 0.137409 
1.063643 2.785372 0.035660 
0.923477 2.947505 0.072912 
0.990684 2.863981 0.052813 
1.022006 2.936580 -0.003712 
1.238169 2.688974 -0.015069 
1.269619 2.781123 -0.060254 
1.121853 2.576900 0.134660 
1.130276 2.767103 -0.000280 
1.397684 2.586865 -0.027380 
1.223364 2.887292 -0.062837 
1.221351 2.773658 -0.043887 
1.123473 2.885310 -0.039472 
1.390375 2.772306 -0.077146 
1.065179 3.374352 0.106115 
0.607743 3.163100 0.453700 
1.248158 3.164941 -0.006834 
1.130071 3.258849 0.012656 
1.121886 3.331701 0.062825 
1.172790 3.220088 -0.004155 
1.342942 3.294010 0.087148 
1.273021 3.418784 0.133112 
1.317377 3.362293 0.110434 
0.381394 2.820202 0.929069 
0.357930 2.947041 0.849804 
0.600502 2.746663 0.742820 
0.517510 2.748346 0.850668 
0.468071 2.852732 0.841648 
0.627947 3.030572 0.489932 
0.624332 2.832227 0.646669 
0.542989 2.886684 0.736144 
0.435966 2.962766 0.789678 
0.494990 3.007625 0.698151 
0.306356 2.857630 0.936229 
0.436362 2.732955 0.938741 
0.461233 3.116225 0.642933 
0.311824 3.168760 0.688911 
0.393908 3.099808 0.705061 
0.336399 3.282284 0.617409 
0.440849 3.264510 0.576812 
0.336044 3.374755 0.595316 
0.443398 3.329714 0.558157 
0.557069 3.014648 0.615266 
0.513999 3.139089 0.578148 
0.410348 3.205254 0.622196 
1.821957 1.925530 0.033273 
1.823944 2.026216 0.017421 
1.334697 1.908551 0.224753 
1.395005 2.065146 0.167497 
1.571800 2.236189 0.056759 
1.707443 2.054403 0.055256 
1.601710 1.871189 0.132039 
1.619106 1.741552 0.143260 
1.377905 2.276219 0.117441 
1.371166 2.385387 0.081246 
1.543803 2.349956 0.029143 
1.551569 2.573359 -0.071986 
1.365210 2.486209 0.038575 
1.525914 2.457418 -0.010609 
1.630224 2.423778 -0.031414 
1.802869 2.166838 -0.003910 
1.735307 2.441626 -0.070427 
1.707802 2.317264 -0.017061 
1.709619 2.573888 -0.116845 
1.863213 2.576555 -0.157001 
1.889678 2.648771 -0.183426 
2.109596 2.105177 -0.102948 
2.180966 1.942138 -0.126784 
1.995063 2.102558 -0.057365 
2.258762 1.862163 -0.177120 
2.455586 1.976762 -0.303348 
2.330169 1.860428 -0.224249 
2.154478 2.040156 -0.116251 
2.322623 2.120356 -0.209138 
2.270249 2.235200 -0.192274 
2.457869 2.070356 -0.297701 
2.353822 2.026433 -0.226189 
1.967711 2.330767 -0.095088 
1.948553 2.442157 -0.126687 
2.722223 4.008844 -0.616584 
2.207322 2.375153 -0.194483 
2.770962 4.107408 -0.759362 
1.853339 2.980533 0.001507 
2.684793 3.951231 -0.493363 
2.875850 4.026068 -1.000442 
2.859098 3.715472 -0.883678 
2.220702 2.665379 -0.307696 
2.443495 2.424682 -0.326235 
2.305763 2.494371 -0.276433 
2.452625 2.229067 -0.296752 
2.330436 2.347826 -0.243657 
2.404145 2.555213 -0.348232 
1.340677 2.694183 -0.054678 
1.503838 2.664295 -0.086645 
1.563844 2.696469 -0.102027 
1.567695 2.766654 -0.098176 
1.462595 2.819183 -0.076381 
1.318627 2.882168 -0.062856 
1.473350 2.994529 0.006363 
1.477573 2.899941 -0.043690 
1.346168 2.945187 -0.043243 
1.378060 3.020110 -0.008226 
1.643557 2.841841 -0.078182 
1.555819 2.861691 -0.060781 
1.539987 2.953280 -0.005699 
1.658823 2.656330 -0.121838 
1.799027 2.725633 -0.157541 
1.635667 2.762766 -0.111636 
1.806632 2.685626 -0.161787 
1.932456 2.748236 -0.198701 
2.024481 2.783251 -0.230136 
2.879458 3.774128 -0.977670 
1.882240 2.824427 -0.150736 
2.946974 3.589511 -1.154776 
2.835814 3.392755 -0.772427 
1.452514 3.160560 0.083731 
1.552930 3.075512 0.075889 
1.898996 2.886040 -0.112089 
1.518788 3.191082 0.118626 
1.655656 3.098167 0.104268 
1.586936 3.216811 0.136984 
1.480599 3.331723 0.145523 
1.453311 3.402003 0.163987 
1.582023 3.372029 0.168678 
1.925166 2.990564 -0.026137 
1.744165 3.143379 0.114218 
1.674784 3.178212 0.129267 
1.804461 3.153811 0.100499 
1.927613 3.043500 0.010436 
1.907677 3.126161 0.054678 
1.796426 3.328867 0.133869 
1.895340 3.303437 0.096450 
1.998456 3.270532 0.041313 
1.892239 3.394955 0.124212 
2.130572 2.723789 -0.282303 
2.095300 2.631052 -0.247923 
0.544404 3.268609 0.500522 
2.082622 3.108414 -0.061735 
2.165242 3.078376 -0.147083 
2.253220 3.185659 -0.181320 
2.015762 3.117968 -0.009878 
2.139400 3.241796 -0.055793 
2.015035 3.361399 0.063883 
2.081617 3.318722 0.011175 
2.184098 3.290239 -0.065291 
2.339026 3.327668 -0.156137 
2.242941 3.351892 -0.065777 
2.172590 3.395651 0.004211 
2.282604 3.255117 -0.164572 
2.397547 3.259929 -0.262548 
2.559794 3.309440 -0.354742 
0.722378 3.458838 0.419825 
0.666046 3.527709 0.496496 
0.760535 3.535776 0.461010 
0.712385 3.617636 0.535091 
0.290855 3.484270 0.602535 
0.371345 3.457887 0.585734 
0.392331 3.559369 0.597497 
0.307814 3.609638 0.620308 
0.443127 3.732472 0.636018 
0.501420 3.623137 0.592304 
0.599581 3.626316 0.569532 
0.541588 3.717611 0.617774 
0.586307 3.798756 0.640910 
0.672927 3.715927 0.598706 
0.370354 3.787605 0.655514 
0.452934 3.966431 0.676936 
0.260288 4.731676 0.501277 
0.437949 4.133543 0.672002 
0.545643 3.880927 0.663844 
0.567685 3.996737 0.679086 
0.453308 4.062376 0.677141 
0.573071 4.174917 0.668966 
0.653207 4.264567 0.652969 
0.775066 4.135015 0.683010 
0.893487 3.552909 0.423162 
0.927568 3.509416 0.353969 
1.047055 3.451399 0.204450 
0.961445 3.399204 0.180162 
1.054309 3.571613 0.389249 
1.129061 3.465822 0.193885 
1.257078 3.543674 0.281027 
1.218315 3.445941 0.155344 
1.163688 3.616193 0.419465 
0.847758 3.613752 0.499806 
0.873195 3.696436 0.560218 
0.761228 3.799360 0.629139 
1.009534 3.698038 0.542101 
0.934508 3.785854 0.607453 
1.048023 3.637674 0.477992 
1.175307 3.678772 0.493077 
1.169022 3.720945 0.533884 
1.113906 3.761873 0.571582 
1.300369 3.749733 0.543092 
0.779469 3.983920 0.680662 
0.983589 3.962519 0.664261 
0.804057 3.909884 0.665602 
1.133554 3.981235 0.650264 
0.961703 3.883520 0.648263 
0.778158 4.044765 0.685926 
0.784845 4.206370 0.671993 
0.931959 4.286827 0.642366 
0.966329 4.075745 0.676087 
0.983538 4.180970 0.664626 
1.155759 4.186502 0.635175 
1.174504 3.879989 0.623590 
1.262622 3.997384 0.626886 
1.269415 3.826331 0.590068 
1.131022 4.083863 0.655454 
1.262785 4.093523 0.623021 
0.267632 4.360883 0.629801 
0.297685 4.662995 0.524338 
0.468195 4.242150 0.652909 
0.461452 4.331586 0.629839 
0.561366 4.364057 0.619935 
0.634129 4.466206 0.581903 
0.782999 4.296157 0.647824 
0.466568 4.435545 0.596323 
0.508366 4.552634 0.553010 
0.707312 4.580534 0.531949 
0.825152 4.664953 0.486712 
0.362554 4.730484 0.499057 
0.372776 4.686418 0.513147 
0.363493 4.730365 0.499027 
0.400239 4.730007 0.497924 
0.451783 4.729411 0.496151 
0.566707 4.657549 0.513510 
0.505039 4.728934 0.494020 
0.503236 4.728934 0.494094 
0.662311 4.690563 0.494857 
0.660607 4.727742 0.482889 
0.655809 4.727742 0.483321 
0.571558 4.728338 0.490518 
0.606933 4.728100 0.487747 
0.555972 4.728457 0.491457 
0.778342 4.727265 0.469820 
0.826264 4.727146 0.463517 
0.725948 4.703814 0.483962 
0.800768 4.727265 0.466974 
0.696847 4.727623 0.479208 
0.777537 4.727265 0.469910 
0.772068 4.727265 0.470551 
0.723729 4.727504 0.476228 
0.663260 4.727742 0.482650 
0.951267 4.395910 0.596418 
0.858537 4.403508 0.602260 
1.067901 4.361734 0.594209 
1.075336 4.253868 0.632175 
0.867686 4.581702 0.516670 
0.965676 4.576470 0.505459 
1.204024 4.401014 0.542562 
1.186972 4.304436 0.591624 
1.294255 4.228808 0.584971 
1.275076 4.335257 0.552260 
1.454306 4.316601 0.490380 
1.246935 4.559974 0.442885 
1.227915 4.640934 0.408249 
1.078341 4.578720 0.481041 
1.333415 4.409566 0.495175 
1.411901 4.570279 0.378166 
0.865007 4.727146 0.458093 
0.849897 4.727146 0.460179 
0.950051 4.662833 0.469207 
0.947857 4.727146 0.444652 
0.893706 4.727146 0.453668 
0.925192 4.727146 0.448557 
0.929156 4.727146 0.447931 
0.973323 4.727265 0.439959 
1.023987 4.727504 0.429423 
1.048082 4.727623 0.423791 
1.030722 4.666927 0.451520 
1.112613 4.665390 0.431956 
1.072580 4.727861 0.417696 
1.105154 4.728219 0.408979 
1.111561 4.728219 0.407236 
1.159513 4.728815 0.393288 
1.136551 4.728577 0.400172 
1.189643 4.729292 0.383662 
1.180107 4.729173 0.386732 
1.225612 4.704804 0.381556 
1.246402 4.730246 0.364052 
1.265714 4.730603 0.357019 
1.209909 4.729650 0.376822 
1.239875 4.730126 0.366317 
1.328060 4.731915 0.333594 
1.284191 4.730961 0.350105 
1.299837 4.731318 0.344353 
1.361022 4.732511 0.321003 
1.432070 4.734060 0.293316 
1.389036 4.733107 0.310289 
1.383761 4.732987 0.312300 
1.404667 4.733464 0.304060 
1.580538 3.533455 0.243143 
1.436710 3.460806 0.190831 
1.445589 3.516762 0.232063 
1.669904 3.360126 0.163033 
1.565605 3.463072 0.201852 
1.734676 3.421270 0.171072 
1.844961 3.469033 0.170831 
1.454006 4.226571 0.520734 
1.429814 4.107251 0.558451 
1.559422 4.117971 0.499986 
2.014180 3.950471 0.279108 
1.800192 4.051971 0.388265 
1.705397 4.137492 0.423003 
1.875261 4.083617 0.336569 
1.928101 4.142037 0.284771 
2.023184 3.422760 0.091665 
2.116966 3.476646 0.089713 
2.227594 3.433589 0.002555 
2.307839 3.544373 0.046836 
2.315845 3.771420 0.122250 
2.469163 3.464356 -0.135016 
2.559430 3.452569 -0.226075 
2.636159 3.506293 -0.278390 
2.615067 3.618283 -0.196654 
2.570296 3.570576 -0.159252 
2.321442 3.421548 -0.063212 
2.412213 3.480397 -0.077633 
2.406564 3.556320 -0.014564 
2.491712 3.565983 -0.081232 
2.626933 3.798900 -0.254899 
2.625816 3.709484 -0.214719 
2.558077 3.687180 -0.111789 
2.498347 3.633496 -0.057578 
2.407746 3.729368 0.047657 
2.486934 3.773647 -0.040396 
2.442030 3.876942 -0.031939 
2.474775 4.047846 -0.180636 
2.563404 3.818052 -0.158732 
2.539055 4.076337 -0.291114 
2.560813 3.982854 -0.268336 
2.438691 4.195312 -0.207954 
2.536386 4.163455 -0.328513 
2.362328 4.180179 -0.108613 
2.072720 3.994032 0.230160 
2.356000 3.833926 0.077490 
2.246294 3.905375 0.139614 
2.351166 3.901824 0.052149 
2.205064 4.033536 0.119349 
2.392060 4.038192 -0.069030 
2.083331 4.202919 0.146251 
2.284501 4.051565 0.039334 
1.614014 4.229345 0.444358 
1.490921 4.419557 0.425970 
1.561685 4.345455 0.427381 
1.401609 4.671629 0.332103 
1.643291 4.509445 0.309877 
1.545819 4.594295 0.312536 
1.798027 4.221273 0.344013 
1.675694 4.351927 0.365329 
1.830484 4.324152 0.282172 
1.901417 4.535015 0.140159 
1.745053 4.493649 0.260833 
1.732885 4.634628 0.202096 
1.912784 4.609978 0.101823 
1.979143 4.477696 0.110578 
1.516679 4.735848 0.259610 
1.535857 4.736325 0.251608 
1.543710 4.736444 0.248300 
1.560356 4.713086 0.251413 
1.485536 4.735133 0.272216 
1.568356 4.737160 0.237541 
1.439864 4.734179 0.290247 
1.607040 4.738113 0.219868 
1.573229 4.737279 0.235410 
1.656258 4.739663 0.196161 
1.691679 4.702321 0.193872 
1.645659 4.668597 0.231739 
1.694361 4.740855 0.176804 
1.681248 4.740378 0.183465 
1.589412 4.737637 0.228064 
1.630330 4.738829 0.208812 
1.767564 4.712993 0.148242 
1.727486 4.741928 0.158893 
1.741970 4.742524 0.150802 
1.833731 4.746100 0.096740 
1.751372 4.742763 0.145571 
1.806775 4.744908 0.113072 
1.771072 4.743597 0.134172 
1.794288 4.744431 0.120522 
1.714984 4.741570 0.165718 
1.838127 4.746220 0.094103 
1.854995 4.746935 0.083791 
1.923981 4.696261 0.061144 
1.895094 4.748604 0.059100 
1.869777 4.747531 0.074746 
1.909951 4.749200 0.049846 
1.954818 4.751107 0.021594 
1.969585 4.751703 0.012236 
2.173233 4.229845 0.059609 
2.131898 4.401597 0.025026 
2.272144 4.236015 -0.036490 
2.199556 4.482738 -0.061225 
1.965295 4.205008 0.235508 
2.060782 4.435153 0.067560 
2.459206 4.347539 -0.286480 
2.311274 4.494696 -0.164138 
2.387911 4.466910 -0.234541 
2.360345 4.319582 -0.163838 
2.281069 4.373836 -0.099144 
2.002323 4.753134 -0.008999 
2.078912 4.692885 -0.038737 
2.036193 4.754683 -0.031499 
2.067919 4.584637 0.006431 
2.012650 4.753611 -0.015779 
2.092997 4.757306 -0.069423 
2.025897 4.754207 -0.024570 
2.150166 4.662808 -0.078991 
2.098897 4.757545 -0.073431 
2.158010 4.760525 -0.115095 
2.122710 4.758737 -0.089852 
2.142260 4.759690 -0.103666 
2.176696 4.761478 -0.128759 
2.311328 4.769227 -0.236539 
2.247847 4.618359 -0.141984 
2.316320 4.769585 -0.240771 
2.226258 4.764220 -0.166772 
2.166693 4.532888 -0.051105 
2.233410 4.764578 -0.172345 
2.262304 4.766247 -0.195710 
2.221087 4.763863 -0.162704 
2.196887 4.762551 -0.144018 
2.274701 4.766962 -0.205783 
2.353275 4.771969 -0.272764 
2.331022 4.652696 -0.223123 
2.344096 4.771254 -0.264673 
2.398858 4.775068 -0.314785 
2.381066 4.773757 -0.298007 
2.364719 4.772684 -0.283165 
2.810938 3.636148 -0.662078 
2.729393 3.612520 -0.415603 
2.783397 3.228479 -0.727168 
2.907018 3.527044 -1.023144 
2.776284 3.697678 -0.568918 
2.896540 3.373316 -0.980090 
2.857428 3.300829 -0.869492 
