-11.843005 25.012302 -21.374964 
-11.088665 25.125908 -21.415234 
-18.747265 40.009018 -14.080615 
-18.505365 40.885853 -14.083526 
-11.747648 25.418705 -21.002716 
-17.595474 49.665016 -11.352822 
-18.994654 24.182259 -18.415239 
-19.578566 24.248560 -17.404152 
-11.517621 25.799927 -20.874565 
-18.506069 41.402813 -14.096710 
-17.071955 49.636112 -10.994060 
-17.025702 49.797066 -12.079660 
-18.934301 24.553461 -17.606794 
-10.088623 25.064356 -21.618160 
-16.726158 49.714218 -11.419641 
-16.906275 40.053833 -15.318292 
-16.535341 40.132263 -15.703134 
-10.981895 25.357014 -21.222841 
-20.619858 23.876293 -17.070078 
-10.504928 25.710737 -21.132471 
-19.946480 24.046221 -17.550848 
-18.236284 49.488075 -10.531619 
-18.309690 49.536510 -10.828224 
-16.316090 40.729366 -15.639874 
-16.603643 40.467907 -15.443743 
-20.141233 24.170366 -16.869658 
-16.833002 40.693279 -15.120098 
-18.155619 49.247208 -9.438507 
-17.091505 49.189445 -9.183289 
-16.559652 41.139671 -15.427360 
-16.620228 41.719231 -15.164734 
-16.314966 41.870049 -15.359800 
-18.328537 39.936195 -14.661573 
-10.629170 26.622059 -20.923042 
-19.649364 24.445005 -17.009136 
-20.034168 24.777437 -16.326645 
-17.931103 40.165634 -14.647159 
-10.427094 26.038044 -21.032957 
-17.206352 49.422241 -10.111801 
-10.758358 26.285133 -20.925423 
-18.362146 24.520672 -18.259672 
-18.445177 24.667505 -18.000065 
-18.429537 25.013691 -17.707933 
-9.897270 26.478426 -21.048325 
-18.492752 40.231125 -14.343484 
-18.232168 40.550922 -14.490816 
-9.199566 24.816494 -22.464684 
-17.710291 40.693481 -14.667640 
-17.407524 40.419395 -15.144871 
-19.054853 24.858826 -17.246902 
-9.319195 25.146906 -21.695814 
-9.242887 25.021832 -22.122894 
-20.630444 49.028164 -9.316747 
-17.374125 41.616539 -14.857503 
-17.469551 42.001732 -14.713166 
-18.309704 41.223225 -14.374936 
-17.961748 41.170902 -14.402069 
-8.073435 24.915766 -22.498596 
-17.633663 41.176067 -14.567428 
-7.931806 25.083559 -22.213427 
-18.324913 42.067188 -14.124137 
-19.248554 26.626196 -17.144529 
-17.910021 41.821598 -14.305763 
-18.606821 26.696138 -17.506453 
-17.398825 41.253674 -14.909433 
-8.445558 25.142090 -21.828459 
-7.969961 25.156765 -21.856464 
-16.873230 41.347412 -15.018351 
-19.901709 25.680990 -16.187414 
-19.572405 25.061941 -16.638617 
-9.831544 25.445494 -21.376579 
-8.823269 25.169956 -21.634897 
-18.999527 25.287334 -17.088812 
-18.959326 49.219788 -9.516518 
-19.333014 25.820234 -16.693552 
-9.297872 25.567745 -21.377346 
-16.327023 43.075245 -15.048590 
-9.198325 25.903334 -21.271271 
-19.597788 49.049973 -8.839691 
-8.222862 25.499952 -21.530565 
-20.065392 26.705269 -16.904716 
-19.917130 26.398306 -16.481550 
-17.970201 42.270565 -14.124239 
-17.679251 42.166256 -14.344774 
-20.739439 26.863787 -16.737452 
-17.396194 42.657570 -14.595541 
-18.948908 26.105495 -17.025009 
-17.704647 42.715164 -14.222013 
-19.416590 48.917130 -8.130951 
-19.118515 48.961758 -8.408741 
-19.060106 26.393429 -16.986486 
-16.849365 41.987423 -14.818046 
-19.548643 48.859123 -7.838168 
-18.774149 49.021168 -7.888113 
-19.449106 26.139305 -16.580572 
-16.554075 42.270214 -15.161089 
-16.611990 42.827396 -14.921926 
-9.071554 26.259920 -21.208992 
-9.005108 26.716032 -21.183870 
-16.900280 42.600307 -14.698177 
-16.834690 43.294952 -14.553873 
-7.975388 26.216137 -21.302324 
-17.520462 25.314037 -18.272726 
-18.533476 25.432434 -17.432178 
-17.519497 49.066265 -8.753401 
-17.071157 25.833080 -18.393475 
-16.621536 43.987293 -14.698156 
-16.605825 43.350098 -14.891609 
-16.353521 44.188667 -14.825443 
-16.243280 49.317818 -9.794791 
-17.163206 42.927082 -14.523558 
-17.419500 43.686420 -14.348594 
-17.495272 26.673241 -18.091810 
-17.901640 26.427103 -17.687557 
-16.410938 49.020432 -8.476509 
-18.776030 25.833086 -17.158344 
-20.201450 40.161709 -12.974073 
-17.694189 25.903803 -17.926046 
-20.156778 40.505566 -13.072966 
-20.110157 40.029152 -13.240060 
-18.205595 26.712612 -17.693481 
-19.591845 40.369862 -13.352717 
-17.410900 26.431717 -18.054111 
-16.870213 26.354025 -18.415478 
-18.404934 49.017151 -8.432349 
-19.015169 40.039959 -14.009838 
-17.984772 48.879391 -7.920962 
-19.411123 40.158607 -13.543234 
-18.139217 49.062157 -8.768270 
-14.811536 27.950083 -20.469433 
-19.306049 40.643745 -13.805806 
-19.395935 40.719715 -13.542740 
-18.763258 41.110992 -13.826673 
-13.490957 28.733332 -21.077404 
-19.536480 40.900677 -13.261903 
-19.584152 41.519493 -13.096578 
-16.995989 48.851120 -7.793715 
-14.236355 28.808264 -20.806099 
-14.332638 29.166718 -20.756744 
-18.996073 41.146362 -13.776020 
-19.013990 42.551113 -13.449258 
-24.685093 19.952122 -14.786511 
-24.506044 44.344810 -7.060650 
-24.413031 44.209244 -7.274261 
-18.671329 41.686138 -13.760640 
-24.438854 44.962547 -7.063496 
-19.376564 41.495758 -13.304353 
-19.313120 41.112045 -13.603172 
-14.017078 27.775253 -20.556194 
-19.287046 41.917873 -13.493281 
-13.482946 27.767061 -20.737064 
-24.129385 44.759586 -7.373605 
-20.414814 39.760227 -12.775515 
-12.959183 28.004282 -21.005758 
-20.212858 40.661842 -12.720283 
-24.459253 44.780075 -6.795242 
-12.545467 27.785746 -20.922537 
-20.402454 40.856018 -12.522808 
-24.355482 18.684801 -15.519111 
-24.614454 44.252522 -6.593636 
-13.053199 27.454235 -20.398607 
-24.472284 45.209023 -6.526679 
-20.098412 41.254562 -12.975602 
-11.744749 27.735174 -21.099417 
-24.806747 18.594418 -14.891409 
-13.235324 28.333742 -21.097546 
-24.417868 45.388317 -7.012713 
-20.274149 41.788086 -12.408446 
-20.141376 41.667343 -12.798274 
-23.897371 46.172607 -7.597534 
-23.900867 46.287327 -7.317940 
-20.402914 42.079750 -12.246497 
-24.521603 45.396938 -6.788172 
-13.932419 28.089628 -20.765362 
-13.581091 29.225843 -21.018236 
-24.476097 45.635521 -6.523974 
-24.450346 46.872272 -6.503520 
-24.441296 46.011230 -6.781300 
-23.878426 45.562260 -7.329201 
-12.647852 28.533518 -21.341347 
-24.955269 44.641487 -6.224236 
-18.485426 42.371460 -13.847249 
-12.539345 28.986891 -21.372166 
-18.772068 42.114006 -13.608020 
-24.628986 45.323475 -6.329563 
-24.969847 45.570389 -5.931484 
-24.478184 46.042747 -6.261003 
-19.272320 42.914722 -13.237643 
-24.757162 46.048248 -6.006257 
-23.874895 20.668901 -15.725318 
-19.405087 42.612186 -12.990118 
-19.334015 43.392365 -13.068049 
-18.711628 42.673965 -13.509017 
-24.004015 46.177994 -7.107678 
-23.803997 22.096655 -15.486296 
-24.170074 46.839478 -6.796964 
-18.537514 43.165733 -13.562515 
-18.510511 43.765125 -13.589448 
-23.644608 22.632374 -15.554619 
-23.849606 47.109974 -7.304348 
-23.851891 47.171246 -7.019460 
-18.757896 43.366993 -13.308561 
-24.319092 19.986809 -15.290412 
-14.526181 29.536493 -20.626213 
-18.712757 44.035973 -13.217796 
-19.574217 42.004963 -12.998576 
-24.692360 22.069767 -14.317156 
-19.595835 42.780151 -12.797280 
-20.217417 42.606079 -12.438143 
-12.630960 29.440584 -21.282761 
-20.105600 42.416412 -12.645455 
-25.006380 20.520681 -14.191294 
-23.479748 48.009716 -7.062737 
-23.040007 48.048042 -7.724814 
-23.269140 48.295719 -6.870953 
-23.501167 47.562119 -7.285527 
-24.086893 22.639233 -14.966649 
-23.134974 48.334953 -6.713186 
-20.115660 43.315281 -12.464775 
-24.267668 22.382307 -14.828856 
-24.464394 46.460358 -6.221257 
-24.392151 22.648613 -14.493678 
-24.976343 22.356936 -13.763683 
-13.469910 29.954069 -20.915852 
-19.629999 44.044212 -12.498963 
-20.216002 43.154617 -12.178868 
-20.224373 43.820232 -12.186628 
-20.405935 43.275303 -11.985232 
-24.503466 46.907410 -5.954001 
-23.905329 47.430580 -6.637584 
-20.109318 43.687649 -12.361431 
-24.259914 47.350758 -6.132842 
-19.470751 43.607220 -12.692806 
-24.849474 46.759262 -5.702202 
-24.997978 46.717873 -5.477682 
-12.191393 30.057240 -21.268219 
-18.215948 42.585640 -14.036351 
-24.015368 47.765903 -6.332994 
-13.408120 31.355349 -20.603586 
-24.692677 22.658413 -13.927800 
-18.314457 43.296909 -13.865475 
-23.837315 48.007797 -6.459131 
-12.973094 32.293396 -20.519920 
-17.945107 42.987106 -13.992591 
-18.207901 44.095821 -13.682910 
-24.338493 47.735901 -5.727314 
-17.660830 43.475101 -14.054656 
-23.994589 48.026348 -5.944607 
-17.897127 43.859985 -13.776151 
-17.454899 44.415077 -14.178878 
-23.597794 48.180786 -6.291950 
-23.223228 22.837835 -15.989384 
-23.578716 48.154942 -5.614151 
-22.995201 23.215248 -15.906741 
-23.432724 22.916899 -15.674412 
-23.473457 23.118931 -15.228392 
-22.802898 23.375303 -15.641128 
-12.030040 28.361145 -21.451635 
-23.965630 22.896458 -14.881261 
-22.656515 48.421669 -6.592629 
-11.341527 28.536140 -21.701721 
-11.306225 28.260445 -21.662947 
-21.958187 48.519485 -6.738730 
-11.928306 28.791994 -21.562899 
-11.574737 29.133688 -21.617695 
-21.343737 48.481201 -6.450047 
-23.422911 23.206383 -14.836067 
-10.377247 28.559752 -21.908554 
-23.639915 23.137531 -13.943235 
-22.028625 48.364220 -5.991577 
-10.437563 28.318888 -21.851597 
-10.656319 28.802721 -21.857027 
-22.817978 48.296967 -5.904266 
-22.675373 48.161209 -5.093685 
-21.970289 48.173298 -5.143502 
-12.129153 28.141970 -21.328693 
-11.137547 28.072412 -21.586416 
-20.523537 48.362232 -5.905211 
-21.528971 23.699446 -16.114525 
-10.959649 27.433250 -20.966976 
-21.206045 48.324642 -5.730517 
-22.306925 23.518209 -15.189804 
-22.640955 23.421860 -14.692591 
-10.427855 26.981886 -20.983301 
-11.724450 27.524229 -20.894934 
-21.745848 23.700161 -15.539347 
-14.403709 36.599003 -17.252832 
-10.620228 28.089025 -21.630228 
-10.866671 27.705009 -21.124344 
-9.689325 27.990532 -21.650423 
-9.833549 27.356735 -21.172218 
-21.412241 23.856228 -15.785742 
-14.708143 36.897438 -17.431620 
-14.604351 37.196533 -17.596100 
-24.699762 47.237339 -5.349787 
-21.275620 24.094828 -15.552390 
-15.015947 37.958477 -17.293337 
-24.948215 47.042526 -4.864286 
-14.781184 37.455009 -17.515511 
-24.072870 48.032204 -5.432986 
-21.226952 24.398090 -15.265484 
-24.769791 47.730583 -4.608490 
-15.949095 36.661446 -16.824177 
-8.433515 27.973291 -21.675209 
-21.917152 23.732889 -15.177662 
-22.924664 23.414526 -14.042521 
-22.427094 23.777582 -14.291663 
-24.420496 47.887997 -4.772069 
-9.092978 28.245951 -21.993509 
-15.731539 36.364784 -16.591866 
-9.033704 28.570625 -22.118793 
-8.226039 28.608822 -22.169695 
-23.546879 48.114147 -5.234765 
-14.583332 36.435547 -16.999390 
-9.441704 28.844767 -22.034719 
-24.118116 47.861565 -4.165129 
-21.901899 24.403500 -14.453138 
-23.245201 48.048538 -4.685551 
-14.528893 36.130989 -16.464420 
-21.836151 24.034235 -14.841690 
-14.175327 35.859715 -16.381889 
-15.195895 36.020813 -16.200005 
-24.931311 47.665199 -3.981801 
-15.408270 36.672882 -17.023163 
-8.258002 28.269867 -22.044222 
-15.503973 36.946911 -17.187904 
-15.046459 37.257587 -17.403358 
-15.911966 37.363472 -17.026226 
-15.917263 37.860363 -16.924616 
-24.517616 47.762424 -3.906157 
-9.095380 27.381786 -21.287695 
-22.492430 26.377514 -14.887040 
-9.857556 27.742239 -21.394730 
-23.745262 47.690964 -3.129189 
-9.143972 27.744703 -21.455444 
-23.327532 26.350758 -14.180992 
-8.911995 27.076210 -21.236187 
-22.792179 26.161968 -14.309416 
-23.230124 26.636877 -14.544307 
-23.718122 26.694452 -14.114935 
-7.934021 27.228729 -21.340687 
-7.807901 27.622936 -21.492571 
-22.842302 47.819439 -3.619200 
-13.023705 36.643543 -17.819996 
-12.073221 36.383053 -17.335550 
-13.760052 36.909187 -17.896900 
-12.923547 37.237801 -18.221901 
-13.182705 36.977139 -18.083847 
-22.438063 26.691551 -15.277558 
-13.749053 37.220337 -17.943596 
-21.390270 48.306053 -4.970185 
-21.912609 48.103352 -4.377388 
-21.202087 26.696875 -16.182285 
-14.070024 36.648949 -17.458872 
-21.735851 26.680374 -15.753683 
-20.647589 26.425190 -15.995869 
-10.224958 29.235317 -21.859621 
-21.659042 26.424181 -15.432721 
-12.715513 36.852493 -18.151691 
-11.884485 36.948143 -18.395412 
-21.407011 48.130589 -4.293734 
-12.367743 37.167076 -18.405928 
-12.547831 35.632809 -16.997662 
-22.360737 47.956905 -4.242596 
-21.631777 25.545473 -14.622527 
-21.558510 24.618652 -14.749141 
-14.123181 36.325871 -16.821354 
-22.018423 47.871929 -3.775821 
-12.780522 36.332493 -17.143497 
-20.278931 25.518400 -15.817560 
-20.841734 25.598347 -15.321764 
-13.844000 36.123062 -16.576435 
-13.346488 35.858429 -16.647385 
-20.936089 25.905161 -15.348008 
-22.329735 47.702480 -3.207028 
-21.708580 25.917542 -14.721310 
-12.733725 36.130642 -16.942341 
-21.553350 47.711426 -3.185460 
-12.485559 35.855206 -16.945055 
-11.146461 29.572088 -21.620506 
-21.999037 26.115015 -14.714662 
-12.060608 36.125057 -17.079153 
-20.686415 48.029526 -4.419237 
-21.111904 26.135454 -15.335763 
-11.389669 31.857550 -21.036280 
-21.214342 48.029850 -3.808848 
-24.156830 22.928688 -14.356150 
-24.241320 22.953484 -13.345401 
-14.346431 37.842209 -17.643444 
-24.949434 22.679411 -13.285748 
-14.558009 38.531780 -17.327332 
-19.562489 48.558029 -6.594538 
-9.414003 29.780602 -21.866251 
-23.602507 23.196779 -13.586135 
-20.348919 48.367104 -5.460726 
-19.711975 48.302284 -5.645321 
-8.752951 28.906260 -22.111580 
-15.872261 38.308064 -16.787802 
-23.304041 23.493420 -13.321877 
-8.261911 28.832434 -22.164360 
-16.630121 38.417488 -16.328604 
-8.316310 30.055260 -21.918430 
-16.398464 39.119965 -16.283010 
-24.699783 22.814646 -12.407853 
-16.012465 39.094391 -16.473061 
-15.524338 39.610607 -16.425781 
-15.777047 39.532524 -16.240168 
-15.217982 39.724426 -16.443840 
-23.931089 23.146872 -12.910271 
-15.525786 40.040607 -16.266830 
-24.640709 22.899717 -11.774637 
-23.927988 23.305773 -12.514237 
-18.504932 48.370152 -5.836680 
-15.368951 39.057907 -16.830391 
-17.879995 48.323627 -5.546967 
-14.028737 39.358662 -17.321793 
-23.648733 23.498735 -12.682306 
-14.572566 39.322334 -17.090231 
-15.062761 39.362671 -16.796129 
-23.164345 23.802807 -13.142283 
-14.701839 39.781120 -16.594952 
-14.371173 39.672234 -16.907701 
-14.439176 40.123959 -16.727760 
-16.950676 48.535225 -6.459116 
-23.890436 23.711153 -12.059443 
-17.361372 48.515091 -5.731654 
-13.719451 37.811012 -17.887735 
-13.298830 37.838989 -18.004126 
-16.710880 48.374947 -5.747940 
-20.140562 48.335873 -5.012793 
-20.739882 48.380249 -5.217360 
-19.524387 48.212914 -5.241269 
-13.151810 38.402863 -17.909033 
-23.577427 24.675835 -12.207782 
-13.007747 37.789600 -18.131998 
-22.801792 23.704163 -13.759675 
-11.954149 38.070900 -18.374176 
-19.752443 48.169289 -4.541653 
-22.450958 24.011663 -13.979050 
-12.504262 38.404831 -18.116516 
-22.676416 24.819757 -13.355633 
-22.029417 24.778114 -14.147760 
-23.020521 24.096411 -13.099864 
-23.002224 24.418154 -12.950668 
-22.318180 24.527126 -13.861072 
-19.245317 48.089291 -4.692659 
-13.037385 39.401447 -17.656620 
-19.731709 47.868210 -3.626854 
-12.845403 39.718925 -17.345167 
-20.102486 48.113022 -4.183607 
-13.347332 38.833672 -17.702969 
-22.705650 25.176630 -13.354955 
-12.394856 39.392647 -17.878786 
-22.772371 25.494150 -13.398337 
-22.948950 25.732122 -13.408848 
-12.716982 39.585579 -17.613180 
-23.827175 26.470066 -13.861146 
-20.299297 48.003384 -3.548602 
-24.027590 26.783203 -13.703529 
-12.262284 39.824718 -17.645943 
-19.093679 47.821819 -3.618335 
-24.502565 26.162149 -12.851053 
-23.897425 26.101620 -13.386598 
-24.510307 26.436409 -13.014267 
-13.880405 39.644871 -17.022535 
-23.504211 26.079191 -13.665355 
-13.581860 39.908146 -17.080072 
-13.438847 39.722870 -17.290800 
-18.257242 48.226582 -5.317453 
-12.108059 32.166615 -20.790718 
-17.511892 48.079426 -4.617983 
-24.151096 25.809217 -12.687576 
-16.676008 48.237144 -5.203068 
-23.118685 24.869341 -12.744805 
-17.192869 48.213581 -5.099165 
-23.256756 25.273552 -12.735368 
-10.248101 30.942305 -21.477238 
-23.292292 25.620968 -12.925118 
-11.747619 37.215645 -18.510897 
-24.303778 24.683357 -11.216494 
-23.717167 25.151085 -12.154065 
-17.056452 48.154175 -4.618383 
-11.372045 36.874516 -18.460739 
-10.854668 37.028660 -18.641714 
-11.203167 37.209919 -18.672424 
-24.836182 26.156958 -12.502277 
-24.927492 25.866394 -12.071195 
-16.690195 48.316067 -4.567502 
-24.913939 26.478161 -12.475111 
-11.655416 37.701996 -18.506567 
-17.985863 47.929234 -4.065374 
-18.209370 47.787224 -3.271142 
-22.233912 25.172375 -13.895638 
-9.971310 37.478817 -18.930740 
-21.520380 25.126789 -14.674849 
-10.468855 36.672531 -18.314293 
-22.473166 25.828480 -13.925749 
-22.203289 25.549911 -14.038716 
-11.389695 33.076134 -20.733276 
-17.587103 47.977467 -4.056214 
-10.679165 37.202400 -18.758982 
-10.702291 32.490715 -21.027117 
-11.127184 37.513111 -18.681656 
-16.862211 48.274387 -4.202078 
-17.060036 48.135113 -3.566183 
-20.203470 24.315416 -16.485704 
-16.321728 48.313610 -4.268848 
-16.171564 47.815510 -3.283043 
-16.442604 48.101254 -3.665887 
-20.118441 25.078920 -16.092108 
-20.339336 25.935486 -15.785312 
-9.676074 37.179455 -18.966257 
-8.497108 37.215893 -19.061468 
-20.199715 26.200666 -16.047304 
-22.409708 48.558571 -7.564785 
-21.923527 48.646969 -7.580317 
-8.707889 37.510548 -19.084690 
-10.040472 36.877827 -18.702400 
-21.173447 48.779915 -7.885372 
-9.080267 37.009300 -18.938437 
-15.843904 24.590454 -20.485727 
-16.673275 24.519466 -19.815327 
-20.767433 48.774609 -7.697676 
-15.486308 24.683947 -20.248320 
-16.018105 24.859522 -19.687351 
-14.783961 25.035805 -20.175472 
-9.243753 31.802795 -21.422331 
-8.808857 36.776550 -18.671629 
-8.540936 36.958916 -18.920635 
-7.281373 36.790009 -18.665060 
-8.611979 32.429482 -21.343365 
-9.795673 33.095135 -21.031067 
-15.605936 25.205242 -19.601892 
-14.439505 25.361132 -20.084198 
-8.382790 33.158710 -21.167755 
-11.058377 38.080254 -18.606846 
-20.155661 48.650070 -7.053681 
-10.513165 38.289536 -18.675455 
-14.093818 25.860561 -19.989672 
-19.942177 48.770828 -7.630841 
-19.534399 48.848137 -7.215076 
-9.944776 38.086651 -18.824213 
-19.742775 48.399597 -6.094995 
-10.158522 38.785885 -18.547623 
-11.732326 33.730255 -20.434637 
-19.227886 48.942841 -7.445172 
-14.259311 26.959482 -19.792603 
-16.306435 25.044783 -19.313370 
-15.701867 25.464251 -19.396740 
-18.890604 48.837776 -7.139235 
-10.588496 33.750778 -20.681885 
-10.037324 34.368275 -20.476303 
-16.121920 25.824442 -18.994974 
-15.161309 25.792295 -19.510071 
-18.289488 48.830078 -7.602464 
-18.718416 48.860310 -7.255606 
-17.690611 48.631340 -6.733258 
-18.360001 48.776684 -6.759357 
-15.581493 26.732464 -19.143059 
-8.549212 38.770866 -18.794474 
-17.668289 48.676022 -7.105415 
-16.079235 26.654875 -18.872948 
-16.075020 26.315138 -18.898537 
-9.559372 33.989456 -20.745193 
-8.844469 38.158566 -18.952097 
-15.176360 26.283581 -19.377193 
-8.370308 37.958778 -19.047323 
-9.145207 33.485764 -21.001291 
-13.888500 25.131536 -20.529348 
-12.452093 25.314028 -20.870792 
-14.025286 25.500492 -20.190969 
-18.908812 48.540516 -6.538315 
-13.312119 25.357960 -20.549799 
-17.920982 48.658897 -6.281021 
-8.456230 34.174706 -20.797222 
-17.244928 48.547966 -6.419229 
-17.603611 48.573029 -5.956594 
-13.270303 25.826199 -20.328974 
-9.375291 39.195320 -18.571287 
-8.659348 34.567379 -20.556458 
-12.011980 26.082218 -20.657644 
-8.971416 39.637798 -18.486385 
-7.625533 39.597389 -18.648293 
-8.890506 39.142258 -18.663124 
-13.705083 26.263384 -20.044352 
-14.348052 26.345278 -19.763018 
-12.457390 25.766335 -20.618248 
-12.717978 26.396923 -20.382322 
-11.786706 36.656139 -18.086924 
-11.224332 36.414650 -17.585203 
-12.720243 26.697115 -20.367811 
-11.249369 35.580101 -17.387787 
-11.458771 36.194782 -17.291191 
-10.419544 36.149319 -17.501936 
-10.111454 36.670044 -18.284254 
-10.618618 36.466515 -17.798555 
-10.220554 35.856297 -17.519049 
-11.837654 26.494719 -20.645552 
-10.284630 36.320190 -17.611828 
-11.469659 35.860382 -17.247475 
-24.446308 23.122284 -11.783941 
-16.527954 49.543045 -10.581310 
-25.191938 22.847288 -10.451288 
-24.531002 23.334513 -11.266831 
-8.910520 36.583549 -18.132654 
-15.121547 49.754112 -11.505988 
-9.364238 35.887619 -17.636101 
-24.357149 23.645319 -11.303572 
-15.795290 49.552494 -10.632481 
-24.292673 23.963524 -11.259753 
-8.966752 36.121181 -17.680807 
-9.628118 36.165173 -17.585487 
-9.457762 36.487225 -17.811129 
-8.329535 35.593113 -17.881844 
-14.923531 49.424614 -10.223496 
-23.630426 24.295414 -12.168555 
-8.092625 36.582153 -18.130558 
-24.180634 24.369917 -11.355703 
-8.367346 35.855583 -17.800398 
-7.505395 35.802868 -17.857046 
-8.411707 36.417782 -17.856251 
-24.722542 23.543377 -10.635569 
-25.169098 23.749466 -9.613497 
-25.534853 9.346180 -15.563855 
-24.627247 23.905916 -10.638041 
-25.494516 11.832973 -15.084946 
-25.191778 11.365391 -15.684559 
-24.538326 24.314808 -10.760577 
-25.002058 24.865696 -10.255733 
-25.021322 24.462599 -9.944404 
-11.236227 38.830547 -18.310204 
-26.352566 11.245873 -13.620643 
-23.836786 25.391058 -12.173102 
-24.503254 24.985016 -11.115163 
-24.524935 25.581303 -11.917757 
-12.221851 38.974361 -18.022799 
-11.876090 39.353260 -18.005369 
-25.931726 10.379069 -14.629191 
-24.694847 24.710180 -10.650924 
-11.099262 39.574646 -18.163637 
-11.866757 39.605556 -17.868851 
-11.137366 39.869564 -17.901253 
-24.908339 25.091208 -10.638716 
-11.715886 39.900211 -17.523041 
-14.179199 49.588211 -10.930213 
-10.157890 39.353691 -18.415989 
-26.139734 11.537891 -13.980357 
-10.662034 39.673161 -18.179373 
-12.911699 49.701931 -11.463790 
-9.978639 39.686001 -18.313442 
-9.591532 39.622368 -18.418627 
-10.252033 39.923908 -18.074944 
-10.654320 39.911472 -17.830341 
-13.529365 49.489761 -10.458770 
-8.351522 39.819515 -18.387054 
-24.858839 27.823204 -12.485091 
-12.519348 49.397667 -10.040225 
-25.022610 13.417283 -15.513454 
-14.989497 39.690552 -16.455547 
-25.833658 12.019675 -14.452291 
-14.977979 40.391022 -16.184813 
-14.456992 41.071316 -16.518814 
-15.251298 49.180992 -9.177319 
-14.757370 40.724586 -16.231215 
-25.379950 13.592720 -14.905560 
-14.451623 41.587574 -16.381384 
-15.180457 49.051281 -8.670385 
-25.700706 13.455417 -14.388579 
-12.589432 39.921669 -17.368107 
-25.480576 27.751568 -11.510406 
-12.300423 40.289459 -17.425444 
-14.883007 48.907459 -7.967562 
-13.617902 40.613106 -16.826889 
-13.393243 40.251827 -17.110924 
-27.100973 12.107944 -11.753030 
-25.072058 28.645603 -12.019632 
-13.365330 40.989712 -16.932869 
-13.087689 40.328068 -17.045385 
-13.878275 40.029362 -16.737885 
-14.055560 49.001762 -8.432055 
-13.920604 40.933907 -16.491547 
-13.456292 41.446625 -16.844400 
-26.877996 10.581030 -12.611946 
-12.820072 39.953571 -17.164557 
-12.472818 40.602177 -17.318985 
-12.001938 40.332600 -17.307579 
-12.017496 40.692886 -17.275574 
-25.958757 27.705381 -10.668115 
-14.496827 49.316189 -9.780591 
-13.872979 41.226784 -16.457932 
-13.570871 41.855461 -16.591572 
-13.389966 49.132187 -8.889990 
-26.608131 11.241640 -13.081857 
-13.349933 41.897144 -16.731501 
-12.592593 41.019928 -17.101290 
-12.286190 41.239388 -17.213617 
-26.397747 27.446363 -9.855096 
-12.465837 49.295876 -9.628771 
-12.272033 41.895187 -17.102617 
-11.994264 41.468189 -17.019024 
-26.243502 29.444195 -9.758720 
-12.820200 40.904217 -16.905275 
-12.825083 41.946301 -16.637266 
-12.302590 49.002911 -8.451404 
-25.210093 29.528589 -11.603786 
-25.712475 29.126560 -10.843227 
-13.557119 48.819317 -7.617797 
-14.113828 48.783466 -7.580708 
-13.914500 41.847237 -16.252510 
-13.099059 41.745445 -16.675997 
-13.390615 42.380638 -16.555305 
-12.671016 48.976673 -8.374297 
-13.621833 42.769650 -16.344015 
-13.080407 42.506542 -16.471621 
-24.892523 31.479462 -11.464212 
-13.365330 43.149715 -16.462612 
-12.915758 48.856438 -7.750568 
-13.095329 43.149715 -16.355553 
-12.556583 42.157223 -16.859478 
-12.172529 48.971107 -8.100636 
-12.272024 43.004555 -16.815834 
-12.028274 42.203644 -16.886457 
-12.822939 42.658520 -16.503351 
-12.017427 43.057514 -16.643610 
-11.857992 49.518925 -10.775002 
-26.295845 13.798779 -13.206737 
-13.370986 43.473049 -16.346310 
-25.829601 29.927204 -10.422197 
-13.050426 43.530144 -16.216009 
-13.633007 43.275440 -16.276567 
-10.872944 49.613220 -11.222910 
-12.537381 42.982796 -16.722408 
-12.832685 43.514362 -16.275629 
-9.859015 49.546661 -10.882244 
-26.611515 12.952447 -12.719551 
-12.565157 43.737926 -16.557543 
-26.951519 13.406156 -11.862049 
-11.182168 49.803482 -11.954483 
-12.287658 43.742184 -16.665396 
-26.013142 30.749638 -9.781845 
-25.241766 30.975368 -11.115332 
-25.455402 30.532793 -10.918051 
-25.888002 31.273491 -9.761291 
-11.583565 49.333725 -9.876993 
-11.139388 49.450794 -10.356992 
-27.265614 27.724806 -7.774937 
-11.476325 40.045502 -17.654387 
-11.753942 40.386635 -17.298323 
-11.205566 40.198612 -17.745527 
-11.743477 40.939205 -17.210199 
-11.417003 40.711491 -17.582962 
-10.940068 40.231701 -17.642303 
-11.211362 41.038311 -17.564911 
-26.696074 27.589676 -9.192950 
-10.373725 40.204479 -17.876661 
-10.125328 40.179714 -17.959728 
-9.833711 40.138237 -17.845217 
-10.653650 40.255436 -17.610725 
-25.811708 15.548730 -13.788241 
-10.381252 40.777802 -17.727255 
-10.115947 40.842777 -17.845776 
-7.995226 49.705162 -11.596370 
-10.936802 40.932598 -17.414829 
-24.996029 15.652463 -15.111506 
-9.657451 49.784241 -11.984465 
-9.359307 49.608307 -11.203400 
-26.963852 28.723614 -8.317958 
-25.420404 16.700245 -14.248026 
-25.736382 16.536886 -13.746577 
-10.662980 41.475075 -17.302279 
-27.123316 26.612026 -8.370238 
-10.121069 41.363098 -17.700600 
-9.869016 40.987728 -17.600351 
-10.347565 41.631432 -17.590874 
-10.068865 41.843658 -17.622478 
-9.860231 42.104134 -17.330034 
-26.919958 29.833155 -8.087301 
-9.457601 49.429676 -10.309801 
-11.747557 41.463581 -17.042376 
-10.944090 42.037373 -17.135574 
-11.735909 42.110859 -16.946720 
-11.471583 41.230610 -17.391224 
-25.053797 17.211113 -14.746761 
-9.433551 39.916248 -18.136253 
-8.768460 49.516640 -10.726030 
-9.310789 40.274025 -18.006458 
-9.059202 39.905796 -18.309750 
-8.822821 40.027420 -18.169605 
-8.773813 40.496712 -17.871212 
-26.566708 28.833691 -9.222365 
-9.043269 40.507393 -18.058266 
-9.587215 40.101322 -17.845087 
-9.592996 40.940742 -17.608061 
-25.962099 13.548116 -13.898571 
-26.463736 30.056927 -9.095696 
-9.297018 41.130222 -17.844635 
-8.503300 39.950703 -18.147087 
-8.506332 40.255402 -17.900736 
-7.963239 40.143845 -18.281706 
-8.211515 40.239483 -18.140692 
-7.764225 40.175175 -18.201618 
-26.197571 14.972590 -13.175464 
-26.608294 30.446522 -8.595057 
-7.931231 40.847614 -18.128735 
-10.268823 49.314137 -9.856434 
-11.197562 49.048027 -8.724657 
-8.883586 41.226742 -17.850855 
-26.122158 16.346420 -13.081737 
-9.320823 41.610973 -17.701483 
-9.586573 42.475403 -17.289125 
-10.365331 49.091309 -8.979321 
-9.042504 41.596645 -17.831253 
-8.772473 41.670944 -17.591848 
-26.522329 14.335790 -12.637031 
-26.498184 31.042971 -8.491725 
-26.607826 31.240023 -8.005630 
-9.531614 49.106041 -9.105249 
-7.982168 41.299103 -18.005795 
-9.473409 49.200291 -8.645642 
-27.096422 30.343037 -7.304207 
-7.698707 41.042778 -17.850821 
-8.201153 42.008312 -17.738506 
-7.804970 41.799717 -17.862740 
-8.499071 41.864639 -17.523933 
-8.243725 41.259178 -17.918573 
-26.777916 14.816607 -11.999229 
-11.502926 49.010342 -8.420794 
-7.965789 41.988365 -17.858585 
-11.167297 49.186069 -7.987998 
-11.910808 49.170696 -7.584642 
-10.406029 49.073380 -8.618159 
-10.829327 49.200699 -8.123805 
-24.565588 32.219276 -11.542159 
-11.003715 49.192673 -7.734496 
-10.305502 49.229511 -8.060678 
-10.096007 42.659916 -17.417597 
-9.674471 49.116245 -7.753604 
-25.207033 31.939409 -10.640367 
-11.485168 42.243557 -17.166380 
-11.201807 41.918156 -17.350700 
-8.897633 49.209633 -9.544100 
-10.913058 42.688953 -17.010757 
-8.847937 49.143105 -8.985562 
-25.124910 32.597980 -10.138814 
-25.360229 32.546726 -9.627903 
-10.673575 42.391033 -17.114552 
-7.796077 49.192055 -9.513409 
-10.416376 42.446869 -17.354130 
-8.610038 49.150707 -9.220597 
-8.126958 49.182072 -8.961159 
-8.650364 49.271328 -8.679886 
-11.453742 43.103481 -17.032957 
-11.200872 43.104355 -17.103239 
-11.202676 44.085808 -16.859200 
-11.745996 43.167030 -16.712994 
-11.743339 44.194092 -16.512100 
-10.119235 49.228348 -8.386924 
-9.161419 49.262169 -8.410523 
-26.438969 16.414726 -12.453328 
-10.935939 43.787556 -16.723436 
-10.675313 43.156898 -16.994556 
-10.409750 43.449928 -17.172556 
-9.409915 49.233379 -8.146143 
-10.685730 43.692909 -16.823471 
-10.151373 43.178059 -17.337971 
-10.113354 43.974709 -17.116858 
-9.857170 43.296524 -17.064102 
-8.521417 49.096508 -7.878609 
-9.852643 44.134430 -16.844227 
-25.834856 32.359985 -8.818963 
-25.919058 31.610954 -9.452302 
-25.584320 32.293240 -9.533841 
-9.315325 42.306690 -17.596718 
-9.353133 43.171204 -17.382923 
-9.007476 42.690914 -17.607840 
-8.770500 42.767746 -17.356369 
-25.322922 32.651245 -9.036490 
-7.971485 42.452950 -17.771269 
-7.698576 42.028549 -17.635105 
-8.495558 42.914623 -17.338196 
-8.235329 43.149715 -17.485947 
-8.252889 42.528095 -17.653841 
-7.803482 42.879711 -17.592739 
-26.226231 31.786598 -8.495220 
-7.957762 43.345684 -17.557861 
-16.177946 48.382191 -5.770198 
-26.247044 32.050838 -8.007662 
-15.624403 48.496292 -5.957915 
-16.332422 48.329689 -5.430237 
-26.060099 32.301449 -7.916602 
-26.085567 32.270145 -6.928975 
-9.018241 43.453480 -17.403820 
-26.019745 32.311829 -8.412195 
-8.241620 43.873714 -17.363663 
-7.683438 43.559753 -17.246563 
-25.609785 32.514515 -7.979696 
-7.967024 43.993275 -17.438259 
-7.814805 44.465706 -17.331310 
-8.774702 43.548836 -17.150623 
-12.900681 48.401333 -5.455534 
-9.626176 43.588734 -17.039223 
-13.385534 48.483719 -5.697971 
-12.551672 48.420170 -5.843816 
-11.564311 48.425163 -6.061584 
-8.503299 44.034676 -17.088352 
-16.125191 48.480045 -5.140413 
-16.275255 48.413757 -4.677759 
-25.670525 18.415588 -13.568104 
-16.165691 36.135098 -16.064568 
-25.224693 18.373899 -14.303720 
-15.786435 35.863716 -15.732555 
-25.096914 35.102592 -8.156515 
-24.987173 34.760479 -8.143627 
-14.887959 35.858566 -16.157990 
-14.323535 48.581696 -5.466796 
-14.511561 48.222271 -4.921015 
-25.278254 34.826618 -7.752456 
-15.012323 48.200504 -4.648087 
-25.295891 35.527458 -7.924408 
-14.297600 48.097301 -4.660404 
-16.335836 39.449955 -16.052368 
-15.918732 47.979111 -3.830263 
-15.834903 39.779743 -15.971900 
-26.181265 18.399462 -12.662294 
-15.343493 47.995941 -4.127493 
-16.079193 48.269032 -4.204035 
-15.449935 48.351032 -4.641916 
-27.647568 26.622906 -6.919622 
-15.600013 47.837345 -3.586028 
-15.779947 40.270199 -15.866680 
-26.173538 19.521210 -12.448910 
-15.558178 40.730831 -16.043528 
-15.254821 40.711704 -16.102234 
-16.072014 40.085278 -15.801120 
-15.032025 47.846504 -3.721328 
-15.519182 41.457531 -15.932411 
-15.256390 41.332859 -16.012308 
-13.671075 48.310253 -5.296116 
-15.784575 41.056835 -15.634027 
-13.368375 48.401100 -5.409448 
-15.794098 41.523472 -15.589530 
-16.083054 41.305317 -15.486642 
-15.788006 42.088360 -15.411592 
-12.903112 48.387318 -4.709185 
-14.956140 41.242870 -15.999572 
-14.726472 41.253792 -16.194736 
-27.595562 28.145121 -6.723423 
-12.783269 48.425919 -5.012844 
-14.973831 42.535362 -15.668306 
-25.744913 21.608995 -12.764520 
-25.321970 21.578140 -13.475688 
-27.959326 27.917494 -5.533505 
-25.061684 22.046967 -13.786076 
-13.954574 47.947407 -4.120311 
-13.318212 48.033272 -4.181014 
-27.296503 29.372030 -7.227609 
-26.203938 21.818968 -11.792560 
-15.791532 42.663319 -15.301302 
-11.822179 48.149822 -3.907782 
-12.786821 48.177265 -4.070863 
-26.145266 20.773262 -12.203572 
-12.821956 47.960274 -3.452812 
-15.535531 42.366047 -15.695332 
-15.271334 42.624821 -15.674504 
-15.541199 43.168148 -15.500440 
-12.449355 48.034981 -3.430802 
-14.503342 42.099884 -16.252207 
-25.642323 22.041994 -12.813329 
-14.705354 42.227329 -15.953634 
-14.824140 42.992508 -15.704113 
-14.581990 43.083382 -15.981955 
-14.432064 42.667717 -16.110868 
-26.999828 30.857718 -7.204105 
-25.427349 22.360729 -12.910717 
-25.104212 22.650871 -12.830490 
-14.140515 42.774918 -16.061342 
-27.641323 29.240923 -6.194098 
-25.379515 22.535757 -12.139866 
-27.876907 29.004627 -5.480747 
-27.536926 30.062866 -6.076480 
-14.437117 43.633831 -15.899601 
-14.175562 43.519802 -15.864010 
-15.526052 43.714600 -15.435597 
-14.709488 43.451298 -15.701947 
-14.987156 43.358349 -15.490209 
-14.647890 44.094620 -15.701611 
-14.955838 44.145767 -15.321859 
-16.069363 42.492214 -15.199231 
-16.053589 43.361237 -14.980085 
-15.798309 43.536057 -15.104104 
-16.060234 43.956135 -14.889067 
-13.900680 42.769157 -16.097183 
-28.342278 28.423388 -3.654635 
-8.378193 48.340782 -5.740426 
-13.888668 43.462318 -15.910264 
-13.097733 44.528328 -16.056541 
-28.206947 27.338547 -4.680635 
-12.809616 44.085411 -16.223377 
-12.360787 48.296490 -5.367898 
-11.400362 48.147728 -4.926507 
-10.955046 48.317554 -5.542017 
-11.964009 48.209187 -4.807641 
-28.120487 28.644855 -4.633348 
-27.242832 10.969705 -11.614489 
-10.138088 48.490746 -5.417370 
-10.559742 48.096886 -4.622535 
-10.098598 48.230175 -4.495254 
-9.768958 48.203159 -4.311555 
-10.750068 47.960510 -3.951584 
-28.109453 29.550734 -4.249119 
-11.661167 48.188797 -4.157193 
-11.269278 48.104446 -3.809281 
-27.870758 10.198339 -9.791209 
-11.784865 48.009106 -3.568372 
-24.183643 32.872742 -11.478447 
-24.547699 32.830341 -10.919895 
-10.784729 48.021091 -4.383352 
-27.610012 12.181518 -10.339655 
-27.777378 11.975159 -9.831337 
-23.953293 33.084328 -11.439442 
-27.853954 29.717508 -5.169472 
-9.829538 48.132591 -4.040040 
-11.065170 48.003384 -3.509446 
-10.314320 47.935093 -3.901600 
-23.835962 33.202980 -11.181499 
-27.523554 30.813681 -5.322569 
-23.539938 33.267609 -10.835685 
-27.744310 30.437067 -4.951633 
-9.904251 48.360069 -5.029554 
-9.537811 48.485485 -5.457516 
-9.377501 48.203510 -4.808836 
-23.135147 33.371597 -11.312163 
-8.989442 48.495636 -5.469314 
-8.826343 48.345421 -4.970566 
-24.913733 32.674076 -10.461661 
-24.455410 32.998363 -10.447908 
-24.009615 33.165840 -10.848424 
-8.742997 48.222214 -4.425229 
-24.948616 32.810181 -9.631747 
-24.226671 33.054596 -10.118867 
-27.282984 13.452902 -11.026652 
-8.243162 48.234901 -4.875938 
-22.957239 33.270542 -10.346469 
-7.962780 48.136761 -4.795431 
-23.097918 33.171032 -9.624846 
-9.235548 48.133701 -4.049126 
-28.106544 30.155161 -3.577887 
-8.897471 47.763218 -3.519578 
-27.580465 31.056585 -4.573475 
-27.852348 30.773304 -3.870277 
-9.879245 47.757526 -3.441247 
-27.783350 30.941807 -3.278031 
-8.293666 47.910213 -4.024560 
-27.501480 13.853918 -10.350854 
-8.224023 47.710697 -3.386515 
-22.897964 35.015793 -10.735899 
-22.731125 35.307701 -11.343109 
-16.137474 48.724083 -7.176128 
-15.836840 48.491837 -6.252571 
-14.997307 48.649010 -6.886533 
-23.917627 35.343517 -9.986355 
-15.085254 48.766296 -7.406889 
-28.005919 9.396038 -9.421916 
-23.139111 35.301056 -10.853568 
-26.898766 31.293928 -7.015928 
-26.583033 31.787394 -7.386489 
-22.985886 34.791447 -10.127785 
-26.332037 32.135666 -7.582973 
-27.968382 12.196916 -9.119200 
-13.982731 48.926517 -6.710112 
-23.488434 34.975571 -10.017001 
-27.138557 31.402716 -5.826769 
-22.564098 33.377914 -10.935750 
-26.481171 32.079842 -6.962862 
-22.223722 33.575798 -11.749726 
-21.668177 33.727032 -11.571074 
-15.499236 48.639805 -5.514599 
-22.272003 33.465908 -10.911958 
-14.836631 48.629913 -6.616129 
-15.215750 48.714161 -5.794159 
-21.768091 33.746395 -11.052605 
-14.773068 48.751400 -5.733292 
-14.548068 48.823757 -6.371616 
-28.305090 10.206597 -7.918952 
-21.304600 33.963417 -11.460147 
-25.594418 32.421349 -7.226835 
-14.309768 48.803566 -5.913066 
-21.799385 33.963421 -10.563694 
-25.105972 32.421333 -6.600665 
-20.999493 34.549919 -11.424139 
-13.797846 48.758465 -7.259399 
-22.862169 35.547623 -11.392795 
-22.346537 35.538422 -11.893539 
-26.444202 32.083305 -6.499999 
-13.329367 48.915146 -7.340425 
-26.012024 32.195587 -6.244480 
-13.634720 48.999199 -6.817151 
-22.145437 35.102608 -11.400091 
-26.332209 32.029957 -5.722331 
-14.331010 48.708984 -6.919749 
-28.108681 11.245942 -8.681752 
-26.731564 31.873087 -6.327181 
-26.818354 31.797258 -5.203275 
-13.271201 48.999401 -6.680260 
-12.983604 49.070641 -7.143173 
-12.127311 49.121857 -7.737401 
-21.339867 35.054787 -11.541739 
-25.345175 32.311897 -6.420358 
-12.363826 49.113136 -7.201139 
-20.966200 34.784630 -11.484266 
-21.106421 34.937263 -11.455083 
-21.568434 34.789539 -10.895213 
-12.654927 48.997169 -6.775711 
-22.516966 33.442505 -10.120120 
-22.089638 33.695499 -10.390092 
-21.771612 34.402744 -10.518719 
-24.985359 32.363014 -5.772975 
-14.092498 48.889038 -6.244187 
-24.980835 32.361210 -5.229578 
-22.394756 33.693245 -9.829928 
-13.962132 48.756828 -5.878150 
-22.289362 33.928089 -9.877587 
-22.239084 34.245907 -9.937349 
-22.093412 34.495827 -10.214668 
-28.305990 11.989376 -7.657735 
-21.357765 34.233418 -11.053900 
-13.247836 48.816750 -6.207644 
-12.342524 48.550533 -6.212088 
-22.443558 35.052826 -11.095926 
-25.452291 34.504932 -7.166879 
-21.819664 34.954235 -11.017455 
-25.110016 34.394394 -7.504896 
-22.227919 34.733154 -10.381474 
-28.289696 13.219406 -7.622089 
-22.724407 34.639202 -9.821558 
-25.420679 34.280628 -6.870801 
-15.674606 48.506699 -4.953592 
-15.127774 48.554070 -5.149124 
-24.593338 32.880287 -9.248449 
-25.598377 34.841984 -7.168371 
-25.081154 32.672897 -8.260206 
-25.814457 34.516193 -6.739787 
-24.239643 32.827484 -8.429930 
-25.845230 35.137302 -6.867895 
-27.011232 14.995904 -11.426973 
-23.624140 33.061352 -9.598969 
-23.811850 32.936478 -8.872021 
-26.251051 34.235641 -5.696132 
-22.623671 33.430954 -9.686405 
-23.250874 33.136711 -9.208349 
-11.618299 49.092758 -7.198449 
-26.711636 34.247700 -5.178484 
-26.128929 33.973225 -5.538997 
-23.456110 33.147846 -8.553720 
-25.068050 33.990791 -6.479575 
-27.245817 14.969563 -10.849298 
-24.839094 33.875126 -6.317288 
-12.191511 48.863976 -6.670228 
-25.782127 34.227333 -6.411709 
-11.559325 48.550797 -6.441785 
-26.134171 34.483070 -6.036011 
-11.046515 48.812683 -6.962401 
-25.710529 33.964424 -5.988900 
-11.084744 48.556110 -6.425149 
-25.651512 33.881199 -5.736273 
-24.943344 33.702671 -5.660244 
-10.375407 49.083698 -7.545759 
-24.343243 32.697468 -7.947190 
-10.210840 48.747849 -7.040527 
-24.423471 32.636753 -7.359224 
-27.728518 14.352842 -9.575668 
-10.829896 48.701019 -6.754265 
-26.144203 34.736012 -6.085901 
-23.827812 32.934349 -8.281274 
-9.892931 48.759430 -6.512898 
-23.460045 33.486740 -8.152204 
-26.454445 34.706394 -5.436012 
-26.322351 35.417255 -5.634000 
-27.390568 15.858121 -10.327484 
-10.516110 48.729263 -6.372701 
-27.559502 15.423454 -9.919868 
-23.068417 33.425461 -8.880913 
-27.122011 31.602390 -5.203119 
-27.232967 31.520758 -4.469365 
-10.416118 48.553169 -5.732493 
-9.782464 48.555611 -5.975797 
-23.124998 34.473557 -8.942164 
-23.072071 34.232788 -8.710132 
-23.958561 35.031277 -9.641804 
-9.126057 48.793686 -7.389014 
-24.461773 35.111500 -9.167255 
-9.673029 48.744106 -7.071038 
-24.756260 35.033688 -8.766527 
-24.188114 34.783848 -9.017939 
-27.123877 31.493336 -3.644367 
-23.994991 34.495823 -8.673058 
-27.424082 31.364986 -4.020261 
-9.050494 48.661316 -7.040383 
-24.766581 35.518852 -8.852429 
-9.413308 48.767929 -6.538566 
-23.830711 34.789055 -9.479611 
-8.552513 48.500000 -6.378067 
-23.597267 34.593739 -9.236350 
-8.257960 48.779800 -7.506895 
-23.032650 34.517292 -9.211148 
-27.085623 16.703993 -10.993768 
-8.170185 48.548153 -6.717865 
-23.801119 34.335381 -8.274001 
-27.410553 17.115728 -10.120307 
-23.875818 34.236145 -7.975406 
-9.105901 48.642117 -6.123333 
-26.568432 31.827040 -4.718781 
-26.861155 31.731535 -4.659675 
-23.894028 33.985497 -7.541402 
-27.460861 19.338055 -9.778418 
-23.583719 34.238480 -8.160802 
-25.815445 31.942965 -4.767492 
-25.566336 32.155453 -5.693165 
-23.523462 33.979771 -8.078736 
-25.250946 32.188126 -5.313432 
-24.630163 34.749493 -8.668011 
-24.571209 34.498714 -8.294271 
-24.964018 35.796455 -8.481427 
-25.119844 32.344849 -4.545996 
-25.277325 32.118851 -4.508210 
-22.816811 33.636536 -9.132307 
-23.067635 33.973793 -8.681227 
-26.770416 16.419846 -11.751034 
-22.821936 34.227810 -9.092637 
-22.791346 34.499012 -9.373016 
-26.610933 18.784407 -11.763431 
-26.885920 18.356041 -11.244786 
-26.586399 31.652018 -3.775290 
-25.866873 31.830853 -4.314864 
-24.845850 32.538475 -7.299160 
-26.913996 31.594999 -3.798382 
-24.672728 32.598759 -6.762359 
-23.948805 32.887566 -7.688125 
-23.727486 33.153419 -7.855496 
-23.778170 33.422657 -7.611860 
-27.975899 14.251519 -8.762408 
-26.169718 31.696812 -3.736422 
-25.514854 31.963938 -4.399196 
-24.454922 32.842342 -6.664713 
-24.316597 33.061535 -6.786675 
-25.746296 31.789989 -3.532501 
-24.207317 33.420551 -6.904422 
-25.481119 31.979794 -3.231057 
-25.445269 31.980822 -3.825513 
-24.604752 32.878765 -6.082230 
-24.721575 32.611324 -5.884586 
-24.583635 33.410778 -6.087694 
-28.169998 14.661968 -7.939875 
-25.077660 32.630993 -4.345417 
-23.894903 33.675198 -7.424408 
-24.177746 34.010998 -7.302804 
-25.061008 33.011009 -4.344188 
-25.244064 33.219051 -4.087343 
-25.502665 33.160881 -3.533550 
-25.344255 32.402630 -3.405550 
-24.420618 33.941341 -6.924405 
-24.272528 33.731529 -6.839613 
-24.549597 34.192211 -7.573044 
-24.667387 33.712517 -6.122223 
-24.785839 33.412930 -5.521850 
-27.694048 16.501127 -9.380777 
-27.173796 33.684578 -3.397889 
-27.140312 34.333645 -3.919823 
-24.853674 32.888901 -5.021768 
-24.822443 32.608902 -5.399322 
-24.718378 33.179016 -5.576527 
-27.795305 18.348267 -8.894477 
-25.005541 33.457264 -4.894495 
-26.056705 33.821651 -5.101785 
-26.864054 34.242638 -4.877990 
-26.507942 33.991333 -5.151840 
-23.621677 35.651745 -10.524424 
-27.925283 16.147299 -8.660021 
-23.109140 36.029385 -11.175154 
-26.514593 33.830177 -4.721240 
-26.894539 33.961739 -4.553227 
-28.087122 16.015072 -8.083113 
-26.991770 34.212841 -4.433247 
-23.136620 36.539192 -11.128034 
-25.297169 33.717777 -5.128982 
-22.850597 36.527218 -11.540291 
-25.226940 33.541153 -4.586480 
-22.923008 37.438957 -11.104832 
-26.611259 35.108334 -5.050731 
-24.172705 35.898113 -9.815871 
-26.859959 34.996162 -4.548806 
-23.479469 36.019878 -10.787074 
-23.590820 36.300781 -10.631522 
-26.863911 33.709469 -4.032393 
-26.599289 33.677284 -4.286090 
-27.139357 33.945023 -3.975604 
-24.115931 36.616726 -9.678785 
-26.233717 33.388508 -3.561870 
-23.157364 37.288479 -10.857780 
-23.754475 36.952133 -10.073778 
-23.463724 37.685349 -10.292541 
-26.005434 33.541256 -4.044884 
-25.492682 33.524055 -4.293626 
-23.897572 37.478592 -9.795094 
-27.108521 34.876080 -3.712070 
-22.729269 35.861553 -11.697871 
-27.181202 35.484894 -3.265826 
-25.283812 35.899864 -7.905988 
-23.159233 37.792255 -10.727435 
-23.120687 38.250977 -10.384402 
-25.090599 37.148472 -7.864442 
-25.383429 36.957050 -7.308382 
-25.087631 37.320236 -7.661647 
-23.342928 38.022079 -9.999813 
-23.193113 38.350029 -10.061861 
-23.174332 38.833836 -10.035095 
-23.116510 39.394585 -10.079106 
-22.391138 38.069408 -11.603205 
-21.905827 38.532391 -11.593018 
-21.971550 39.023727 -11.385301 
-22.787334 37.897968 -11.112579 
-25.617315 35.363251 -7.285168 
-22.433487 38.581383 -11.178937 
-21.728802 39.371044 -11.659818 
-22.341053 39.093369 -11.130837 
-25.683626 36.335152 -6.928500 
-21.834755 39.360409 -11.373478 
-25.811531 36.837574 -6.394709 
-25.555613 36.982658 -6.940614 
-25.435038 37.477028 -6.811402 
-26.085077 36.642712 -5.835717 
-26.110390 35.526402 -6.071773 
-25.575243 37.309364 -6.297537 
-25.946642 37.071026 -5.803569 
-26.002186 37.118866 -5.168913 
-25.848618 37.615257 -5.740054 
-25.159752 37.593609 -7.069112 
-25.283316 38.268864 -6.761872 
-24.978842 39.040733 -6.819725 
-25.442820 38.399822 -6.515240 
-25.341103 38.974754 -6.514527 
-25.495111 37.715912 -6.168211 
-25.455053 37.992306 -6.492715 
-25.434429 38.901871 -6.309464 
-25.455667 38.348557 -5.949731 
-25.916224 38.061565 -5.462536 
-25.782209 38.230282 -5.701526 
-25.402882 38.620426 -6.002694 
-25.498751 39.462200 -6.255421 
-25.233908 39.524734 -6.507659 
-25.878731 38.930233 -5.461895 
-25.494160 39.314278 -5.757633 
-25.449408 39.769581 -5.688767 
-26.274015 36.582455 -5.336673 
-26.429218 35.924778 -5.154523 
-26.260120 36.981289 -4.871641 
-26.356997 36.851955 -4.682352 
-26.399582 36.797981 -4.343949 
-26.329556 37.591228 -4.621650 
-25.913370 37.568047 -5.190975 
-26.807571 35.709866 -4.438473 
-26.890778 36.179260 -3.882126 
-26.676046 36.178349 -4.480615 
-26.725367 36.675411 -3.685823 
-26.343830 37.382236 -4.109827 
-26.325439 37.902969 -3.867027 
-26.657259 37.367634 -3.406216 
-26.579203 37.174263 -3.806563 
-26.627804 37.724945 -3.583573 
-26.285669 38.005962 -4.574464 
-26.168882 38.469650 -4.652096 
-25.961985 39.333088 -4.649374 
-26.329538 38.620300 -4.343580 
-26.025820 37.817051 -4.925277 
-25.880222 38.181145 -5.133600 
-25.890673 38.289490 -4.907761 
-25.930954 39.081547 -5.193393 
-25.902418 38.977654 -4.904536 
-25.922871 39.889408 -5.169885 
-25.953011 39.939331 -4.939871 
-25.929604 39.913525 -4.635019 
-26.260267 37.774853 -4.093907 
-26.289341 38.368713 -3.823183 
-26.311693 39.072079 -3.755683 
-26.598980 38.252716 -3.543715 
-26.676107 38.687508 -3.323182 
-26.330992 38.970562 -4.064918 
-26.303730 39.236286 -4.324960 
-26.335043 39.608913 -4.129463 
-26.316092 39.532837 -3.553096 
-24.975973 40.938992 -6.816800 
-24.984249 40.320194 -6.530507 
-25.004826 41.574272 -6.813370 
-25.502930 40.639751 -5.982249 
-25.411259 40.138172 -6.249465 
-25.239826 40.778004 -6.259251 
-25.505003 39.967953 -6.015285 
-25.548681 40.141541 -5.489073 
-25.477615 40.371227 -5.722925 
-25.462521 40.859486 -5.736796 
-21.202547 41.240509 -11.651670 
11.779297 40.007118 -7.683063 
9.851950 42.509090 -9.241363 
1.215031 34.523392 -19.148663 
1.597256 34.202015 -19.215450 
1.890635 34.458721 -18.878063 
10.550161 42.155460 -8.706152 
10.389903 42.091999 -9.205044 
10.533851 42.695084 -8.935981 
-1.665577 26.533010 -20.512165 
-2.284261 26.850546 -20.627932 
10.578966 43.101292 -8.685461 
9.873178 43.684780 -9.511253 
9.855049 43.185886 -9.116065 
2.814280 34.168270 -18.625715 
9.574610 44.070053 -9.630163 
9.757404 44.449963 -9.472840 
-7.181547 8.348404 -26.780977 
10.136893 43.121124 -8.967496 
9.870377 43.420212 -8.971532 
9.841940 43.982624 -9.204032 
1.081373 34.767910 -18.950644 
10.522356 43.752300 -8.675452 
0.010443 25.293306 -20.369949 
9.820336 43.952740 -8.881928 
10.130281 43.882339 -8.797152 
0.979279 34.939083 -18.631689 
0.239769 24.920528 -20.786304 
1.528338 34.665222 -18.912342 
10.381551 43.278091 -8.921189 
0.111757 25.059196 -20.496971 
-6.456974 9.349696 -26.560778 
2.002241 34.649174 -18.641277 
-5.580664 9.277160 -26.559397 
10.512556 42.420559 -8.413670 
0.878219 25.983208 -19.764963 
10.555218 43.102638 -8.349083 
0.433693 25.579559 -20.063215 
10.551073 42.978180 -8.148294 
-1.231821 26.078762 -20.455713 
-0.128402 25.970715 -20.130682 
11.127029 42.339710 -8.142738 
-6.967148 10.594492 -26.264479 
-1.541974 26.953497 -20.533344 
11.209560 42.486061 -7.879360 
10.936385 42.791874 -8.128910 
-0.581228 26.566328 -20.207600 
11.172482 42.596951 -7.621686 
10.525353 43.970493 -8.423308 
0.192373 26.314053 -19.973379 
10.478387 43.823772 -8.130533 
10.657637 43.218636 -8.038426 
1.571939 26.172146 -19.454714 
10.515061 44.143677 -7.879113 
10.664699 43.783211 -7.871169 
0.084104 26.899719 -20.062607 
-5.984327 10.852445 -26.210806 
0.577077 26.594614 -19.827105 
11.170040 43.223770 -7.858868 
11.172595 43.612232 -7.599851 
11.136203 44.511951 -7.578704 
4.822794 32.449070 -18.157326 
12.804523 35.506775 -7.280231 
4.830791 33.334248 -17.857203 
2.531986 34.425159 -18.557741 
1.247468 34.995911 -18.151167 
2.248741 34.900120 -17.847795 
12.670158 36.485035 -7.179164 
2.089970 34.923389 -17.719673 
6.131152 19.814928 -20.414810 
12.254071 37.400024 -7.612539 
2.210130 34.802685 -18.194839 
12.460197 37.435024 -6.931422 
12.533850 37.203693 -7.214650 
3.106049 34.606052 -18.004827 
12.733594 37.159344 -6.681759 
12.660341 36.915421 -7.060031 
12.364634 37.746822 -7.032870 
12.597142 37.426003 -6.442129 
12.998673 35.939697 -6.719708 
6.800469 19.867773 -19.913534 
