-1.359625 26.452921 24.075874 
-1.399919 26.428488 21.681492 
7.748881 26.035568 -0.015640 
8.900540 26.177954 0.412407 
9.617254 26.572840 0.757198 
11.203272 26.744194 1.662018 
13.159290 26.794403 2.980774 
15.879295 -1.317439 40.212013 
16.328630 1.033106 39.623882 
16.278221 27.521721 5.447063 
17.095499 27.616096 6.029846 
19.356865 27.905018 7.525578 
20.302940 27.931118 8.156872 
22.070564 27.501755 9.337730 
22.937706 28.578051 10.044792 
24.334442 28.356667 11.077888 
26.057201 28.270399 12.736729 
26.844543 28.353804 13.910769 
27.361481 28.702732 17.431810 
27.377167 28.925659 15.983948 
19.828621 3.453134 35.024120 
19.302135 2.881349 35.606148 
20.439304 4.088107 34.480415 
20.906712 4.549753 34.134186 
21.686607 5.330397 33.527924 
23.734903 9.491282 31.159626 
23.216463 8.881606 31.774147 
24.370646 11.235673 30.092211 
26.195803 16.513243 26.846697 
25.456387 15.641098 27.731091 
26.927631 16.765989 26.052189 
26.810123 18.295586 25.646439 
27.103954 19.013645 25.051121 
27.350765 20.026350 24.245640 
27.740379 20.279552 23.405037 
27.534134 21.657932 22.906832 
27.526037 23.273588 21.783461 
27.623466 24.482239 20.735222 
18.156878 0.474110 37.234238 
17.621305 -0.115338 37.914368 
17.128241 -0.651142 38.586983 
14.583729 6.107213 41.797802 
13.766504 9.621233 43.150558 
14.196227 8.738149 42.560127 
13.265710 10.582994 43.694271 
13.028688 11.004681 43.924744 
12.659929 11.591549 44.199528 
11.330689 12.834417 44.638893 
12.263177 12.115177 44.364624 
11.642546 12.852395 44.523716 
15.922485 5.014370 40.091225 
16.277630 4.276140 39.617043 
15.327508 6.235274 40.866417 
11.292070 14.630543 44.426041 
10.536671 15.468231 44.418480 
9.582121 17.832886 44.187950 
8.619594 20.046345 43.764881 
7.651607 22.156311 43.210018 
6.680674 24.210442 42.584057 
6.430381 25.797184 42.198006 
0.274333 27.744684 39.290535 
-0.615833 27.836126 38.390556 
2.470655 28.170156 40.585907 
-1.403022 27.685162 37.254032 
-1.901582 27.352180 36.242783 
5.647734 27.977926 41.638737 
5.097276 28.908257 41.338715 
-2.752201 27.122957 33.913719 
-3.041321 27.123741 32.652927 
-2.768448 27.014141 28.911224 
-2.305588 27.212648 27.583790 
-1.833381 27.189251 26.259453 
-1.514002 27.099754 24.975552 
-1.332669 27.052481 22.460854 
8.102585 26.673531 0.069229 
10.337663 27.014328 1.158512 
12.511025 27.556444 2.668594 
13.477745 27.588711 3.363613 
16.549726 -0.264110 39.354668 
17.013992 1.194692 38.721546 
15.543182 28.045095 4.999584 
18.409657 27.973209 6.926178 
21.681866 28.810331 9.197018 
25.496044 29.002615 12.184982 
26.336201 29.140125 13.314346 
27.021374 29.118870 14.574806 
27.009346 29.549707 18.045162 
27.104813 28.299000 18.765604 
27.285210 29.249918 17.005274 
18.787066 2.308520 36.269272 
21.550539 7.060796 33.496899 
22.132267 7.670793 32.957588 
22.618734 8.206041 32.442554 
24.240128 10.105631 30.535145 
24.559540 13.564181 29.203918 
24.067913 12.949132 29.843630 
25.046635 14.184271 28.564959 
26.307842 17.641577 26.379856 
27.162161 20.102863 24.473255 
26.576468 19.784477 25.361042 
27.452843 20.769182 23.658079 
27.187325 24.308563 21.733227 
27.014025 25.635740 21.149925 
27.199104 27.232124 19.390415 
27.043173 26.768024 20.236439 
18.483566 1.359735 36.727219 
16.601812 -1.211464 39.251827 
14.621260 8.037026 41.932461 
14.976488 6.985404 41.359886 
14.283707 10.190530 42.456684 
14.646427 9.446896 41.984913 
13.679029 11.382510 43.185383 
13.162512 12.268188 43.647354 
12.865174 12.742638 43.870422 
12.444521 13.345520 44.103249 
12.096605 13.795222 44.236549 
16.712906 3.320502 39.065765 
16.674007 5.142508 39.169086 
16.165405 7.117245 39.985054 
16.346186 5.856058 39.645679 
9.906943 16.424517 44.334820 
11.146727 16.248394 44.118740 
10.814442 16.603855 44.156391 
10.366481 17.079662 44.203037 
9.988221 18.398766 44.053268 
9.409266 19.393774 43.908142 
8.961478 20.545029 43.682549 
8.444269 21.560453 43.425499 
7.197542 23.243179 42.908981 
8.210285 23.002928 43.119667 
7.477487 23.693253 42.899719 
7.350325 25.264030 42.529823 
6.465933 27.495218 41.953831 
0.429579 28.073704 39.396072 
1.657596 28.701700 40.131622 
-2.018773 27.735058 35.946976 
4.005152 28.942778 41.021816 
-2.526139 28.024376 34.468643 
-2.832746 27.633141 33.516418 
-3.072742 27.517746 32.344826 
-3.113821 27.515629 31.076033 
-2.973654 27.743713 29.569559 
-2.668960 27.684792 28.380451 
-1.407917 27.655451 23.262623 
8.455902 27.343760 0.199928 
9.536555 27.450171 0.739265 
10.535137 27.443508 1.307602 
11.753413 28.017639 2.185802 
14.894833 28.805393 4.685169 
17.308336 2.949746 38.246326 
17.829678 28.923920 6.721653 
18.786396 28.864441 7.311577 
20.878925 29.185616 8.697556 
23.482914 29.670755 10.573158 
24.856472 29.658657 11.697094 
25.913811 29.736124 12.863823 
25.676241 29.527821 12.507156 
26.534260 29.878510 13.932127 
27.183191 29.796707 16.580118 
27.108948 29.792500 15.314346 
26.490494 29.612274 19.397572 
18.829769 3.754166 36.104736 
19.289862 4.456844 35.533875 
20.359886 5.841640 34.544373 
19.764492 5.235348 35.072018 
20.955006 6.447139 34.015450 
22.965651 10.592029 31.583267 
22.473413 9.991109 32.239372 
23.711338 10.826944 30.783550 
23.622942 12.417750 30.391928 
25.360264 17.623840 27.203905 
24.839846 17.005098 27.805111 
25.977798 19.346218 26.107340 
26.305370 20.140379 25.471560 
26.592808 21.148378 24.668095 
26.980249 21.492153 23.974932 
26.855473 22.855042 23.409679 
26.967396 24.463331 22.049408 
26.947716 23.685434 22.661091 
26.541655 28.365311 20.207632 
17.993029 2.140830 37.298225 
17.543772 1.670085 37.957813 
15.086021 8.499418 41.357162 
15.756063 7.984607 40.542934 
14.963488 10.491236 41.658726 
15.164976 10.113743 41.439766 
14.081140 11.840995 42.626003 
14.615009 11.088088 41.969570 
13.534079 13.107434 43.137226 
13.012533 13.982054 43.579857 
12.699614 14.441824 43.766731 
12.133755 15.157942 43.965019 
17.141705 4.093959 38.452152 
16.860479 6.525516 39.098660 
11.926181 15.402180 44.015408 
11.768835 17.027523 43.781742 
10.977716 17.882183 43.931767 
10.408676 18.474506 43.976376 
10.196198 18.689297 43.985306 
10.022887 20.241535 43.694481 
9.696672 20.532860 43.661640 
9.235585 20.939041 43.608440 
9.060463 22.456966 43.273926 
8.598394 22.827988 43.176983 
8.225840 24.817392 42.764877 
7.311653 27.026125 42.225338 
0.962809 29.154867 39.690369 
-0.123767 28.813923 38.837715 
-1.050643 28.587582 37.781704 
3.190872 29.425005 40.697147 
-1.777838 28.565792 36.556789 
-2.359088 28.471712 35.022812 
6.159335 28.840591 41.677761 
-2.938619 28.239061 33.044991 
-3.123790 28.158985 31.843388 
-3.106567 28.352121 30.418852 
-2.166956 27.977602 26.857559 
-1.779603 28.307602 25.310213 
-1.534886 28.115679 23.905453 
8.737101 27.917288 0.359840 
9.785875 27.983036 0.914970 
10.998810 28.478649 1.745918 
12.471923 28.634785 2.836189 
14.155454 29.318808 4.233688 
17.068045 29.433287 6.315109 
20.300592 30.106392 8.447586 
24.122213 30.101637 11.144077 
26.820408 30.366522 14.875530 
26.809113 30.649502 17.178560 
27.070057 30.336576 16.160856 
26.467838 30.692253 18.450813 
18.403378 3.030824 36.690422 
19.099581 4.841012 35.774170 
18.450888 4.535638 36.603226 
20.851398 8.199539 34.049446 
21.419510 8.797718 33.479725 
22.033211 9.483286 32.766533 
23.064671 11.741979 31.127216 
23.957008 14.374918 29.473450 
23.273844 14.046762 30.234165 
24.549618 14.824402 28.752607 
24.328846 16.392921 28.425400 
25.489983 18.739040 26.742054 
26.394829 21.178877 24.869221 
25.479721 21.160202 25.730530 
26.746632 21.839294 24.119156 
26.611355 24.174408 22.855618 
26.295269 25.515787 22.455553 
26.817551 26.974304 20.592880 
26.322771 26.815844 21.638697 
26.253628 27.897285 21.043987 
15.631453 9.086516 40.747204 
15.509678 10.822493 40.851391 
14.918869 12.032660 41.506947 
14.033937 13.673435 42.502224 
14.515244 12.771177 41.924164 
13.370847 14.822292 43.055260 
12.752122 15.763611 43.463783 
17.285801 5.795494 38.413498 
17.815044 5.158276 37.588467 
17.004036 7.992708 39.079449 
17.538126 6.739915 38.193649 
12.530026 16.064680 43.565830 
11.456048 18.756851 43.590752 
10.805241 19.450310 43.661175 
10.352030 20.662434 43.532738 
9.847914 21.762297 43.363575 
9.256331 22.738068 43.220341 
8.887358 24.013107 42.988071 
7.921072 26.155334 42.474293 
6.955365 28.308548 41.974503 
0.101334 29.302841 39.007252 
-0.660856 29.463102 38.259205 
-1.505643 29.326572 37.096512 
2.397112 29.913113 40.334023 
-1.940769 28.998140 36.224026 
4.756197 30.208014 41.077457 
5.901116 30.257654 41.391602 
6.720924 29.774176 41.701958 
-2.847323 29.129995 33.613731 
-3.036963 28.743008 32.653324 
-3.176667 28.718351 31.406319 
-2.914326 28.725494 28.845530 
-2.523513 28.907928 27.486565 
-2.088292 28.805330 26.132328 
8.999849 28.484896 0.553432 
10.209716 28.965664 1.320648 
12.612508 29.739473 3.181435 
15.856679 30.026165 5.623466 
19.535347 30.612823 8.045170 
21.237816 30.007994 9.027588 
22.419266 30.515011 9.895981 
25.198170 30.588467 12.224144 
26.015234 30.702314 13.373047 
26.854366 30.982952 15.662212 
26.678078 30.658184 14.652391 
26.260199 30.921837 18.817320 
25.882389 30.823658 19.779076 
25.912434 29.587187 20.636829 
17.976723 4.045236 37.266060 
18.850794 5.363215 36.112465 
19.345181 6.044874 35.556686 
19.867886 6.709179 35.013367 
20.406044 7.364010 34.476845 
22.207798 11.695726 32.023972 
21.657372 11.011400 32.804192 
22.571945 13.180741 31.209106 
23.738848 15.419595 29.346405 
24.794849 18.364115 27.431980 
24.041267 18.104229 28.192127 
25.088556 20.464773 26.391666 
25.543962 22.153774 25.167494 
26.042580 22.785770 24.433050 
26.135468 24.382278 23.419678 
26.058069 23.901945 23.837330 
16.301884 9.456324 40.021877 
16.547037 8.976822 39.730999 
16.069565 9.906731 40.292698 
14.769393 13.755426 41.450825 
13.797951 15.329260 42.459267 
14.357402 14.489862 41.853210 
13.192964 16.538185 42.957230 
17.726702 8.122458 38.125153 
12.426970 17.629141 43.372871 
11.412642 20.180172 43.297382 
10.807833 20.836473 43.377186 
10.632886 21.020660 43.393421 
10.459757 22.576342 43.106979 
10.207306 22.826504 43.111492 
9.675781 23.336882 43.101212 
9.489640 24.896481 42.783371 
8.713242 25.550098 42.677834 
8.541761 27.078016 42.391808 
7.750026 27.750546 42.238197 
7.610733 29.278904 41.975288 
1.620074 30.400782 39.932274 
0.389725 29.923862 39.216984 
3.928904 30.685446 40.775688 
-2.140406 29.501446 35.837059 
-2.626354 29.887161 34.561409 
-3.158588 29.320789 32.204643 
-3.208640 29.195686 31.032803 
-3.126915 29.491995 29.522980 
-2.861827 29.416611 28.300632 
-1.812552 29.092516 24.695204 
9.435796 29.445717 0.901199 
10.975832 30.258835 2.092857 
18.762733 31.114891 7.653419 
21.874641 30.849421 9.583359 
23.517752 30.897263 10.779118 
24.557226 31.238947 11.739887 
25.451191 31.431578 12.823738 
26.168447 31.443188 14.057062 
26.610287 31.744200 16.305214 
26.726223 31.291426 15.425280 
26.345800 31.804062 17.582787 
25.942394 31.484291 19.122765 
25.784618 28.365026 21.578798 
18.375628 6.510298 36.939903 
19.468956 7.483889 35.479961 
18.911972 6.879983 36.176235 
20.140867 7.849159 34.750893 
20.391651 8.994770 34.468994 
20.886974 9.675858 33.913628 
21.243290 10.512772 33.382641 
22.775291 15.449439 30.360603 
23.564318 17.499535 28.861731 
24.132572 19.232246 27.700384 
24.604158 19.831211 27.054090 
25.843464 25.239910 23.238190 
25.584534 26.715733 22.753605 
25.587635 27.852049 22.167633 
16.952351 9.791069 39.230488 
16.059334 11.434265 40.164753 
16.512867 10.619701 39.714447 
15.506139 12.696005 40.703053 
14.592064 15.468885 41.350502 
13.562727 16.990677 42.412468 
14.178389 16.221527 41.772945 
17.446579 8.772898 38.581711 
12.913920 18.201952 42.806374 
12.101311 19.355125 43.112358 
12.786083 19.809551 42.506462 
12.579449 20.098021 42.611526 
12.015223 20.818638 42.817204 
11.534317 21.375870 42.923508 
11.238444 21.715569 42.985111 
11.062262 23.234425 42.772289 
10.286619 24.131924 42.820415 
9.328893 26.436356 42.513195 
8.368832 28.696566 42.149662 
0.740401 30.632925 39.407799 
-0.212459 30.614056 38.699940 
-1.168966 30.357361 37.668991 
-1.923131 30.307941 36.466888 
3.118152 31.163578 40.437290 
-2.490419 30.363998 35.174217 
4.793357 31.217045 40.975117 
7.404239 30.870872 41.676731 
6.683645 31.546618 41.408733 
-3.089932 29.975044 32.960182 
-3.262736 29.866089 31.780746 
-3.286039 30.084167 30.338303 
-2.441595 29.767878 26.735226 
13.212748 30.561529 3.836777 
14.691912 30.737635 4.991142 
16.190376 30.858440 6.024559 
17.971193 31.604836 7.287811 
20.875507 31.463821 9.032070 
22.819872 31.489420 10.343021 
23.882515 31.882627 11.277981 
25.020414 31.905703 12.469261 
24.712523 31.718693 12.055321 
25.796291 31.978947 13.651756 
25.589024 32.006042 13.310837 
26.248825 32.274605 14.672989 
25.971226 32.241642 18.268810 
25.415462 32.273197 19.606028 
25.350622 31.499563 20.407446 
25.255226 30.776054 21.056787 
25.208393 29.535065 21.791742 
19.892076 8.316289 35.022491 
20.578487 10.198160 34.181473 
19.937206 9.847365 34.964287 
21.467903 12.802187 32.489243 
21.033163 12.244266 33.174072 
21.852673 14.322075 31.651127 
23.159266 17.037001 29.457718 
23.049696 18.700321 28.961090 
24.436588 21.248047 26.569489 
24.690872 23.291241 25.412975 
24.140961 23.345329 25.874506 
25.441273 23.562395 24.662708 
25.144442 24.913105 24.205368 
25.391586 26.447723 23.100702 
25.172686 26.119532 23.510460 
16.843235 11.538336 39.251751 
15.925070 13.177008 40.150806 
16.438280 12.287357 39.680115 
15.268204 14.325045 40.764587 
14.397878 17.175686 41.222187 
18.282793 8.707271 37.352352 
18.805099 8.577207 36.510662 
17.874016 9.495596 37.996479 
13.425284 18.823353 42.067791 
13.931686 17.994682 41.662895 
13.376920 20.225471 41.742882 
13.019560 20.812950 42.031872 
12.614454 21.393673 42.256245 
12.228148 21.935284 42.455467 
11.845511 22.439133 42.613297 
10.897111 24.920357 42.531208 
10.666605 25.151608 42.538761 
10.113975 25.696793 42.545681 
9.927824 27.196043 42.242332 
9.156143 27.999264 42.235962 
8.653696 29.100756 42.065281 
8.196261 30.262863 41.876740 
-0.068039 30.929754 38.811523 
0.976146 31.108515 39.534565 
2.173396 31.391098 40.054321 
-0.533638 31.032066 38.384991 
-0.834488 31.207226 38.092819 
-1.677310 31.058451 37.037323 
-2.144838 30.745159 36.132736 
-3.073353 30.862410 33.534821 
5.757269 32.057705 41.127609 
7.718733 31.341038 41.616924 
-3.227553 30.481768 32.567963 
-3.363225 30.418232 31.351324 
14.003619 31.154039 4.598404 
16.672003 31.778070 6.511539 
20.363743 32.587021 8.912811 
22.100536 32.059601 9.925068 
23.141804 32.317780 10.765400 
26.319134 32.765392 15.556826 
26.223675 32.644024 16.928244 
24.823654 32.347122 20.810898 
24.844269 29.073914 22.505205 
19.497389 9.331538 35.567711 
20.292912 10.677229 34.424038 
20.540659 11.641670 33.919140 
22.256155 16.860445 30.472786 
21.580624 16.030565 31.466288 
22.846537 19.731310 28.750191 
23.370148 20.431952 27.940735 
23.740067 20.951061 27.352161 
23.517120 22.869068 26.667425 
24.770678 24.388130 24.869932 
24.804722 27.828289 23.179071 
17.396198 10.280899 38.641796 
16.702110 13.257502 39.201138 
15.614187 14.832097 40.161358 
16.256569 14.020675 39.598660 
15.031462 16.015697 40.613068 
18.661406 9.360416 36.797855 
18.087843 10.569831 37.584450 
14.374656 19.086853 40.728065 
13.787742 20.187626 41.216606 
13.848012 21.463570 40.850552 
13.208574 21.871841 41.571930 
12.736029 22.608673 41.905624 
12.444935 23.017818 42.056988 
11.916374 23.748322 42.316799 
11.676038 24.064129 42.415127 
11.467869 25.580177 42.176441 
10.724150 26.479227 42.248833 
9.768113 28.815733 41.982452 
9.405495 29.168478 41.980953 
8.983822 29.570274 41.969044 
8.723735 31.187296 41.654091 
0.287764 31.710403 39.090431 
1.374181 31.862761 39.680683 
2.631411 32.209816 40.153919 
-2.370265 31.156967 35.818691 
3.599298 32.014832 40.529648 
4.998158 32.488251 40.857002 
-2.980440 31.483402 34.315472 
8.021513 31.787874 41.551247 
7.229978 32.405121 41.362999 
-3.368633 30.996614 32.169510 
-3.461956 30.972893 30.919847 
12.360104 32.006401 3.516819 
13.153467 31.662251 4.081432 
15.233847 32.101048 5.658920 
19.304817 32.422791 8.243523 
21.415543 32.754799 9.603245 
22.383656 32.778084 10.282581 
24.193743 32.757584 11.834545 
25.064140 32.926075 12.938332 
26.223946 32.991306 15.383362 
25.806297 32.963192 14.150589 
26.116520 33.141754 16.541824 
25.828205 33.409458 17.465160 
25.305012 33.480968 18.845013 
24.735538 33.481651 20.140762 
24.649752 32.083900 21.249775 
24.471542 31.795694 21.692593 
24.458946 30.649315 22.255154 
19.780289 11.579026 34.910141 
19.413891 11.084258 35.518639 
20.746067 13.912899 32.981010 
20.324575 13.419135 33.653484 
22.319798 18.004383 29.967617 
24.483362 25.863361 24.351072 
24.385405 27.297409 23.821827 
17.343287 12.110703 38.517372 
16.249542 15.444494 39.201496 
15.503391 16.586227 39.849491 
14.739291 17.612631 40.592445 
18.788700 10.498930 36.508743 
13.672260 22.191805 40.872925 
13.072652 23.420998 41.321575 
12.471565 24.392714 41.787769 
12.277050 24.672903 41.897137 
11.327870 27.139330 41.796204 
10.849552 27.646103 41.844460 
10.547215 27.962843 41.870617 
10.368148 29.547529 41.645576 
9.595541 30.382010 41.709507 
-0.395822 32.317207 38.642242 
0.572762 32.292698 39.253910 
1.659567 32.392525 39.770092 
-1.380787 32.031357 37.635365 
-2.185754 31.929899 36.476234 
-2.843690 32.101364 35.096687 
4.171391 32.967773 40.556942 
-3.340177 31.609686 32.959053 
6.436105 32.978062 41.118336 
8.634462 32.622910 41.321381 
7.846628 33.310295 41.222454 
11.064404 32.323563 2.617039 
14.570232 32.855564 5.371155 
17.840420 33.076820 7.500378 
23.530170 33.384892 11.369431 
24.458040 33.612251 12.424599 
25.233646 33.683640 13.608566 
25.927773 33.810089 16.024815 
25.904324 33.647530 14.881287 
24.108471 33.479687 21.336994 
23.979420 31.072289 22.643345 
24.040831 30.059481 23.012304 
23.977350 28.931770 23.537315 
20.040594 12.453827 34.311523 
20.840796 15.097853 32.562271 
21.661320 17.722477 30.813538 
21.028513 17.373987 31.609158 
21.764744 19.443403 29.986961 
22.232126 21.115891 28.762997 
22.892015 22.607193 27.372362 
23.433456 24.885138 25.856730 
23.826248 25.445366 25.205967 
23.908752 26.605091 24.570036 
18.024481 12.172473 37.484657 
17.683563 12.856209 37.909660 
17.171406 13.825624 38.446918 
16.269112 16.679935 38.797554 
15.588562 17.789207 39.441277 
15.077423 18.624550 39.848652 
14.703770 20.652330 39.896893 
14.263559 23.457012 39.824432 
14.647050 22.132217 39.656288 
13.432817 23.925858 40.749878 
12.835805 25.101734 41.205452 
12.077499 26.240480 41.593868 
11.703671 25.829029 41.963829 
11.927448 27.720903 41.243568 
11.491744 28.237167 41.353703 
11.151608 28.635666 41.434189 
8.961561 31.307119 41.592068 
10.201655 31.087460 41.314625 
9.736606 31.572157 41.351830 
9.420069 31.893280 41.366516 
-0.231088 32.676521 38.768417 
-1.023481 32.947681 38.150444 
0.876064 32.896976 39.406422 
2.004441 33.025913 39.868652 
3.341387 33.451591 40.270226 
-1.900158 32.879593 37.150276 
-2.635568 32.699390 35.890602 
-2.713383 32.487080 35.604378 
5.793709 33.784203 40.854263 
-3.290929 32.244049 33.731014 
6.897652 33.697983 41.072243 
7.533157 33.559998 41.154266 
8.028384 33.549229 41.142204 
9.241886 33.353230 40.958168 
8.835323 33.746529 40.953835 
13.722668 33.121513 4.820793 
16.879959 33.751015 7.063580 
19.450678 33.956394 8.625000 
21.752941 33.594513 10.006287 
22.898151 34.129665 10.996258 
23.942707 34.149124 12.024361 
23.756859 34.062260 11.797928 
24.648636 34.224251 13.010193 
25.279413 34.501331 14.236702 
25.581554 34.529949 16.487305 
25.566833 34.469646 16.793987 
25.804104 34.128784 15.779675 
25.172955 34.636982 17.993458 
24.655155 34.677303 19.283943 
24.040131 34.655205 20.624754 
23.852829 33.095993 21.868155 
23.537317 28.329529 24.244978 
18.918854 11.809247 36.136326 
19.252340 12.787468 35.354336 
19.556759 13.278540 34.738304 
20.047668 15.025102 33.555984 
19.749693 14.254067 34.182037 
20.634914 16.927359 32.222664 
21.098782 18.512630 31.105413 
22.496929 24.882652 26.712328 
18.032389 14.100699 37.027744 
17.454140 14.618773 37.807217 
16.934500 15.515919 38.279385 
15.363291 19.500473 39.281620 
15.245506 21.295076 39.065784 
14.987876 22.937876 39.032047 
13.542171 25.311497 40.234592 
12.696593 26.679295 40.891422 
12.483425 26.992073 41.018208 
12.521372 28.195320 40.554485 
12.040775 28.885334 40.821964 
11.753933 29.269323 40.947887 
11.043533 30.171444 41.200558 
10.803624 31.714371 40.819729 
10.426249 32.134132 40.881947 
10.024763 32.571888 40.937450 
0.150210 33.460480 38.993984 
1.206602 33.523670 39.528248 
2.523197 33.939926 39.962952 
-2.062440 32.953835 36.939205 
-3.232360 32.887970 34.495087 
4.927118 34.239838 40.611450 
7.055896 33.942760 41.053589 
8.457821 34.112007 40.950157 
9.745683 34.129738 40.528385 
11.438949 33.249577 3.071556 
12.909647 33.454247 4.284946 
16.106068 34.252071 6.673325 
21.000555 34.130844 9.616299 
22.080181 34.605034 10.479794 
25.371605 34.992798 15.119097 
23.277857 34.492371 21.902908 
23.467583 31.456810 23.063349 
23.256212 31.165821 23.424562 
23.163286 30.030458 23.905489 
23.042414 27.714611 24.889524 
18.900120 13.210651 35.845581 
18.420164 12.638902 36.741241 
19.357973 14.977135 34.594608 
20.363585 15.847175 32.905571 
20.264919 18.480307 32.046242 
21.164316 20.811188 30.035015 
22.184649 23.531261 27.655199 
22.585993 26.034782 26.101727 
22.975616 26.604570 25.432018 
17.571890 15.691175 37.279385 
18.018913 15.728968 36.530014 
16.701149 17.210154 38.089550 
17.164125 16.418474 37.678116 
15.970422 18.283882 38.767155 
15.617868 21.753040 38.379017 
13.382217 26.884350 39.984531 
12.801374 27.781885 40.384811 
13.104454 28.572077 39.749680 
12.385529 29.717060 40.168552 
11.547802 30.761923 40.636406 
11.401806 32.269482 40.233398 
10.944430 32.801208 40.336639 
10.624931 33.164658 40.399078 
-0.533709 34.066944 38.546078 
0.405161 33.953186 39.100941 
-1.627112 33.670010 37.630928 
1.711885 34.430885 39.643707 
4.098992 34.720924 40.316662 
-2.459819 33.540134 36.495258 
-3.129229 33.577538 35.221466 
6.263511 34.543915 40.844849 
7.671260 34.823586 40.882034 
9.065197 34.841431 40.585800 
12.178708 33.899246 3.792694 
15.171024 34.323303 6.050507 
17.760323 34.993034 7.833088 
20.403973 35.084007 9.452942 
21.361307 35.040241 10.063354 
23.153557 34.890083 11.475193 
24.037003 35.071930 12.567944 
25.237022 35.218178 14.947693 
24.788235 35.118347 13.772528 
25.196022 35.396854 16.081230 
24.939484 35.720348 17.150267 
24.589046 35.724808 18.393158 
23.934458 35.736053 19.932308 
23.340830 35.794506 21.000406 
22.955898 34.002262 22.573059 
22.921452 32.866432 23.122555 
22.686171 29.424475 24.573336 
18.986965 14.508463 35.330956 
19.426983 16.290901 34.056107 
19.807520 16.738174 33.327232 
19.894011 18.065916 32.697552 
20.314493 19.624287 31.524498 
20.767132 20.253941 30.718721 
21.346043 22.209621 29.186766 
21.938904 25.604172 26.926422 
17.406437 17.267105 37.012985 
16.753824 18.409801 37.638885 
15.730105 20.008289 38.643616 
16.282122 19.218277 38.060341 
15.428108 23.468611 38.266552 
15.836182 22.735489 37.861134 
14.709771 24.555523 38.986767 
14.142837 25.837658 39.351929 
12.932605 30.044247 39.348244 
13.515627 29.148350 38.952522 
12.781483 31.226171 39.126629 
12.061081 31.389265 39.946812 
11.991750 32.668457 39.448242 
11.401780 33.717331 39.598282 
11.221133 33.682224 39.764938 
10.364084 34.732735 40.023949 
-0.398232 34.345688 38.626499 
-1.164521 34.662884 38.094669 
0.923627 34.932034 39.286243 
-2.186005 34.404552 37.077259 
3.244184 35.204975 40.038776 
-2.980657 34.313660 35.909405 
5.470579 35.134686 40.622890 
6.881337 35.471375 40.732681 
8.281864 35.614151 40.595535 
9.669758 35.517448 40.153439 
12.896974 34.603943 4.491898 
14.065390 34.990974 5.408367 
19.419037 35.703262 8.995224 
22.463051 35.489792 11.032860 
23.410603 35.737312 12.071381 
24.203178 35.826088 13.240997 
24.925001 36.046669 15.582172 
24.858307 35.774044 14.526869 
24.099661 36.105625 19.190594 
22.592354 35.693665 22.225878 
22.515474 32.369934 23.779177 
22.587528 30.844110 24.210199 
22.267181 28.914871 25.212545 
22.348421 27.420538 25.678726 
18.806942 16.581114 34.927582 
19.523687 19.578297 32.546196 
20.392262 21.904751 30.446651 
20.834124 23.636288 29.134457 
20.446781 23.129282 29.842426 
21.700153 23.814383 28.057928 
21.173765 25.228107 27.979586 
21.294888 26.505154 27.256195 
21.715767 27.051016 26.546736 
16.596361 20.199829 37.338238 
16.039534 20.988907 37.952106 
16.337585 21.840624 37.288586 
16.114674 23.509239 37.228191 
15.486353 24.684940 37.842682 
14.516655 26.332472 38.691544 
15.037282 25.484354 38.279915 
13.756398 27.366327 39.352844 
13.565985 30.342789 38.360821 
12.291094 32.651382 39.126347 
12.532065 33.118557 38.666332 
11.748246 34.229347 39.084915 
10.898895 35.341194 39.427315 
0.039182 35.237732 38.875099 
-2.019759 34.851250 37.321758 
-2.641215 35.001858 36.627068 
-2.847538 34.781494 36.258667 
2.410956 35.675926 39.789349 
4.278899 35.977592 40.234871 
6.131896 36.033279 40.550381 
7.176903 35.875031 40.623230 
7.938458 35.918198 40.557777 
8.867902 36.293106 40.229294 
10.269688 36.105728 39.609348 
11.637556 35.629490 38.683929 
11.009938 36.446274 38.931118 
15.543774 35.805359 6.556305 
16.685720 35.651737 7.305893 
21.744959 36.061249 10.613857 
22.782232 36.459084 11.657871 
23.612484 36.611332 12.763863 
24.339764 36.549919 13.939075 
24.711018 36.527367 15.911343 
24.586979 36.806007 16.272041 
24.805950 36.304333 15.384771 
24.302944 36.853104 17.789188 
23.207260 36.847679 20.418844 
22.600933 36.923256 21.430008 
22.234444 35.280468 22.904100 
22.146418 33.886940 23.629616 
22.233629 31.383072 24.444530 
21.931587 30.466125 25.096066 
21.968948 27.953983 25.876137 
19.108822 17.847729 33.915798 
19.141113 19.040546 33.361927 
19.751320 20.451023 31.859936 
19.990269 21.357918 31.190685 
20.870863 24.776997 28.593569 
17.855656 17.701038 36.117355 
17.101990 18.862394 36.966469 
16.581886 22.625858 36.644173 
15.280858 26.423817 37.562843 
14.685925 27.675888 37.949333 
14.021332 28.366257 38.603214 
14.226835 29.175453 37.933941 
12.204131 34.811462 38.363068 
12.744960 34.014420 38.037178 
-0.619937 35.927849 38.487377 
0.238378 35.629173 38.967705 
-1.831294 35.351837 37.590836 
1.592334 36.165455 39.484722 
5.189865 36.511505 40.331787 
7.494423 36.309021 40.506142 
9.539591 36.929466 39.743805 
11.419927 37.031837 38.256287 
12.328045 36.041145 37.770565 
11.807443 35.448433 3.873875 
12.866146 35.725868 4.701405 
17.868702 36.150848 8.159786 
21.002432 36.607674 10.215527 
22.445972 36.639145 11.403160 
22.029015 36.875866 11.103191 
23.873764 37.108353 13.519857 
24.370144 37.164963 14.726990 
24.347105 37.002132 17.400124 
23.895916 37.123863 18.595379 
23.333778 37.853012 19.178068 
23.349735 37.148273 19.870995 
21.811352 36.755913 22.754753 
21.762115 33.406151 24.371378 
21.716791 32.224518 24.852558 
21.504810 29.961521 25.792889 
21.447491 28.770985 26.249100 
18.393137 17.805513 35.157791 
19.236282 21.273098 32.246620 
18.860998 20.794609 33.031090 
19.772488 22.836010 30.841751 
20.156796 25.230577 29.281590 
19.710802 24.271105 30.297359 
20.475117 26.436590 28.345686 
20.720222 27.387239 27.645077 
21.010864 28.217854 26.999306 
17.826530 19.000019 35.637112 
16.943102 20.638084 36.629677 
17.324469 19.911518 36.200615 
16.956371 21.862507 36.162426 
16.757803 23.596786 35.974831 
15.879816 25.140316 37.083000 
16.333708 24.399918 36.533478 
14.294672 30.362598 37.412483 
13.868696 31.066446 37.761292 
13.246204 31.914629 38.261791 
13.306281 33.157310 37.662769 
13.022473 34.882645 37.383041 
-1.389141 36.414833 38.066860 
0.787453 36.654118 39.147652 
-2.442616 36.032665 37.081524 
3.142143 36.937225 39.884644 
4.143779 36.689110 40.109619 
6.706003 36.985313 40.393089 
8.103252 37.065964 40.176830 
10.108671 37.567657 39.175735 
12.677132 36.553356 37.100231 
11.852661 37.667732 37.475098 
12.098372 36.191734 4.248211 
14.340080 36.951717 5.906513 
17.227962 36.932678 7.858070 
19.000027 36.491264 8.909981 
18.221081 36.978790 8.512371 
20.233574 37.127129 9.839462 
21.263237 37.330978 10.630486 
23.008747 37.216644 12.198502 
24.163151 37.498341 14.473770 
24.273581 37.649963 15.622284 
24.018803 37.983398 16.789701 
23.732021 37.936729 17.963842 
22.446007 38.097771 20.743549 
21.791843 37.941696 22.036219 
21.548365 35.521580 23.751980 
21.323711 31.686140 25.563437 
18.473166 19.095720 34.422318 
18.699347 19.763687 33.715427 
19.322109 22.696861 31.522894 
20.192032 27.940559 28.187576 
17.509893 20.652756 35.519337 
17.231167 22.320541 35.394978 
16.547024 25.256584 35.853180 
15.929091 26.430384 36.548367 
15.529511 27.152031 36.949928 
14.976702 28.062374 37.398865 
14.999544 29.234564 36.879681 
14.048359 32.158276 37.077072 
13.679877 33.678276 36.960548 
-0.013881 37.148941 38.811104 
-1.814248 36.780212 37.740608 
-2.177346 36.701538 37.410480 
2.279333 37.418045 39.613636 
4.504025 37.271812 40.102619 
5.914718 37.607300 40.210873 
7.317357 37.790092 40.124691 
8.709324 37.770630 39.780949 
10.567069 38.175903 38.536457 
12.698677 37.733582 36.416580 
13.578596 37.461006 5.499527 
15.155924 36.593380 6.400257 
16.077803 37.644745 7.193356 
19.524948 37.806557 9.549393 
20.483973 37.805328 10.215240 
22.317482 37.815582 11.756805 
23.151539 37.946838 12.891331 
23.980762 38.247379 15.165279 
23.860657 37.950111 14.131538 
23.286751 38.489594 18.569712 
22.713211 38.502426 19.872982 
21.896399 38.451408 21.452188 
21.132448 37.937187 23.189365 
20.819786 37.330383 24.078255 
20.795311 34.882401 25.186119 
21.025841 33.328453 25.490622 
20.506237 31.178432 26.883751 
20.723192 29.877035 26.904455 
18.164083 20.648733 34.233818 
18.547188 22.348822 32.857414 
18.324993 21.615082 33.549225 
18.956495 24.077866 31.495977 
19.292004 25.759075 30.196787 
18.964727 25.301384 30.906734 
20.000874 26.056404 29.114496 
20.099545 29.762026 27.821522 
17.987719 19.852428 34.947380 
17.342886 23.620937 34.700661 
16.964489 24.360733 35.265961 
15.677766 28.154528 36.260544 
15.386573 29.729763 36.095512 
14.746847 30.978115 36.606682 
13.436090 35.437378 36.645962 
13.977257 34.591228 36.261009 
-0.792393 37.643799 38.422718 
1.472859 37.892769 39.315460 
3.710813 37.857277 39.873894 
5.085286 38.373146 39.992760 
6.341671 38.217476 40.090515 
6.678894 38.352882 40.051464 
7.910023 38.537231 39.764404 
9.310974 38.391495 39.278351 
11.274441 38.421360 37.704201 
11.872485 38.792648 36.876198 
13.462645 36.637825 36.035278 
12.625527 37.504303 4.878761 
17.200626 38.010994 7.998882 
18.366838 38.505020 8.887115 
21.615767 38.403809 11.323952 
22.515839 38.602703 12.402634 
23.278397 38.660713 13.597639 
23.752970 38.825783 15.596458 
23.680256 39.022732 15.841015 
23.840952 38.513847 14.961815 
23.542212 38.805981 17.289101 
21.215454 39.089058 22.251829 
20.556276 36.863216 24.693714 
20.620834 32.813786 26.236311 
18.029640 22.150482 33.848457 
18.575325 23.597717 32.314697 
19.382610 27.021370 29.552200 
19.495768 29.162115 28.783009 
17.743307 22.227390 34.364651 
16.899942 25.708021 34.851593 
16.289097 26.856447 35.690598 
15.132056 31.479055 35.822987 
15.585025 30.709330 35.426308 
14.430236 32.608093 36.360615 
14.468428 33.784630 35.864838 
14.205875 35.501801 35.557922 
-1.540199 38.136650 37.937119 
0.667737 38.379417 38.976128 
2.916712 38.425896 39.623726 
4.275144 38.745354 39.828461 
8.070820 38.681747 39.654297 
8.568665 39.139297 39.306416 
9.908511 38.934380 38.676456 
10.611921 39.270378 37.949173 
13.067296 38.269989 35.708862 
12.254078 39.388786 36.102394 
13.832990 37.156761 35.265896 
15.523134 38.579685 6.983284 
19.832180 38.606926 9.966190 
20.886707 38.964039 10.914227 
21.792057 39.307861 11.910744 
22.685043 39.428162 13.109463 
23.365593 39.333954 14.337494 
23.418600 39.249035 16.946301 
23.070246 39.477604 17.736897 
22.532848 39.549267 19.209633 
21.979273 39.525658 20.412947 
21.371096 39.596836 21.577484 
20.772568 39.578392 22.813339 
20.510712 39.154255 23.597233 
20.371571 34.496639 26.013885 
18.107426 23.953213 32.994308 
18.325104 25.341557 32.034328 
18.510019 26.077694 31.309320 
18.666143 26.984934 30.607494 
19.144016 28.726572 29.369448 
17.705557 24.035902 33.782890 
16.819756 26.859591 34.487312 
16.370781 28.365692 34.800751 
15.968579 29.375135 35.217777 
15.819311 31.482569 34.741905 
15.189981 32.672134 35.227108 
15.161210 34.391563 34.599991 
-0.128237 38.871372 38.623398 
2.246617 39.173866 39.341568 
3.409524 39.206940 39.591732 
5.741391 39.159225 39.919655 
7.140059 39.266777 39.737659 
9.151983 39.783997 38.747650 
11.092614 39.812210 37.207867 
10.909209 39.824326 37.367302 
13.111640 39.421463 35.082298 
13.859196 38.351910 34.662292 
13.180779 38.866009 5.513893 
14.147761 38.828392 6.110950 
17.207947 39.210037 8.229126 
18.729239 39.437679 9.359516 
20.207893 39.664906 10.586258 
21.105326 39.675907 11.409161 
23.011547 39.826149 13.965656 
23.288097 39.838490 15.216663 
23.044018 40.172459 16.342457 
20.049797 36.095894 25.780373 
20.047785 33.164066 26.954845 
18.036640 26.908585 31.847034 
18.925022 27.792707 29.945362 
19.392715 30.989769 28.472767 
18.972431 30.487022 29.130234 
17.772493 25.697418 32.918800 
17.383657 26.707788 33.325584 
16.345299 31.097971 33.833115 
14.561840 36.033195 34.766853 
15.057757 35.261086 34.418064 
-0.922184 39.364624 38.267860 
1.408719 39.642227 39.051262 
4.950843 39.795181 39.755238 
6.355048 40.007687 39.706890 
7.747472 39.996906 39.374203 
9.618366 40.393700 38.134979 
11.679120 40.146076 36.339790 
12.253597 40.495323 35.507988 
14.579253 37.201229 34.207680 
16.036789 39.921249 7.610954 
19.452293 40.095886 10.083244 
22.059673 40.026390 12.575699 
22.836380 40.600655 14.636866 
22.820347 40.082481 13.772289 
22.700853 40.404762 17.340622 
22.365995 40.536568 18.285484 
21.831089 40.699051 19.647167 
21.243746 40.728409 20.913490 
20.645996 40.721657 22.197638 
20.068207 40.625851 23.440058 
19.914904 39.929321 24.190176 
19.779404 39.024963 24.905058 
19.800323 35.423538 26.461071 
19.642593 34.448280 27.059288 
19.260181 32.566555 28.259884 
17.887409 28.494785 31.534723 
18.398140 28.612398 30.543129 
18.662926 29.575294 29.828547 
17.341063 28.304401 32.742184 
16.759693 30.252357 33.257011 
15.555229 33.196281 34.471367 
15.977989 32.437851 34.052654 
15.276020 36.061256 33.752609 
0.592727 40.125885 38.732479 
2.744173 39.992790 39.351570 
4.255861 40.536964 39.521027 
5.401138 40.452053 39.646870 
5.861152 40.435352 39.640926 
6.821277 40.599766 39.472034 
7.016526 40.730415 39.398392 
8.348757 40.610840 38.862782 
10.315983 40.711983 37.379391 
11.022697 41.092201 36.478516 
14.093301 39.096119 33.990757 
13.621472 39.775742 34.256012 
13.071737 40.514194 34.500420 
14.583374 38.344826 33.660263 
14.955893 39.632698 6.818390 
17.619780 40.261753 8.758354 
18.679588 40.557426 9.608784 
20.451340 40.409031 11.069695 
21.031403 40.933632 11.905857 
22.208099 40.762360 13.263760 
22.774305 40.733391 14.783911 
22.633278 41.058689 15.557755 
22.343681 41.303696 16.744598 
19.406559 40.703865 24.527214 
19.445513 37.821938 25.979523 
19.383995 36.131824 26.826662 
19.345894 34.039761 27.662560 
18.249393 30.374063 30.307018 
18.455950 31.324097 29.735977 
18.749580 32.160812 29.094030 
16.223549 33.201820 33.371620 
15.787006 34.771278 33.500328 
-0.222480 40.612850 38.416512 
1.949741 40.555138 39.093410 
3.406161 40.950069 39.345398 
5.567053 40.692028 39.604084 
7.611229 41.348949 38.884754 
8.946599 41.159515 38.268257 
9.674272 41.471436 37.540497 
11.387674 41.612396 35.805260 
14.211317 40.015846 33.267860 
12.236731 41.614429 34.845707 
15.598660 36.735054 32.911026 
13.886825 40.619194 6.351715 
14.528494 41.014248 6.867332 
16.552990 41.253479 8.293797 
17.905678 41.021858 9.167549 
19.755682 41.003471 10.631718 
21.568920 41.414650 12.778008 
22.271021 41.410736 14.024151 
22.406425 41.471542 15.242943 
22.077406 41.234215 17.987255 
21.628132 41.771111 18.700981 
21.130533 41.853901 20.087248 
20.584997 41.882057 21.408379 
19.984919 41.849236 22.672703 
19.290581 41.757763 23.982841 
19.098637 40.198524 25.325756 
18.933372 35.550301 27.651684 
17.927401 29.897461 31.022257 
18.068153 32.085579 30.199718 
16.831566 31.968729 32.527855 
16.077402 35.968239 32.548347 
0.754317 41.327080 38.615025 
2.503955 41.443832 39.071835 
4.776027 41.318935 39.428139 
6.176335 41.457512 39.285648 
8.081963 41.900887 38.392075 
9.995474 41.998825 36.930367 
14.937590 38.873711 32.808044 
13.387150 41.666954 33.341103 
12.525928 42.749008 33.735306 
15.580052 37.676521 32.417652 
19.040777 41.578186 10.210018 
20.017223 41.855312 11.224102 
20.752096 42.151989 12.232834 
21.678411 42.110737 13.499006 
22.168518 41.889652 14.924471 
22.024693 42.145199 15.607483 
21.905247 42.349537 15.846392 
21.631973 42.385841 17.400423 
18.655663 41.822693 24.994459 
18.973450 39.174236 26.094288 
18.694181 37.269775 27.389275 
18.480814 35.145576 28.496069 
18.509668 33.839554 28.996868 
17.283579 29.922525 32.243370 
17.562197 31.818714 31.194527 
18.124895 33.329193 29.807112 
17.497219 30.579603 31.632488 
16.961683 33.674629 31.778835 
16.082754 34.729660 33.020470 
16.397831 34.149895 32.690826 
16.617043 34.911430 31.992981 
16.150759 36.594563 32.053471 
1.676837 41.923069 38.772179 
3.984538 41.937069 39.241028 
5.388096 42.137302 39.177048 
6.780763 42.131077 38.850163 
8.635647 42.617599 37.700684 
10.417632 42.887775 36.032684 
11.373400 42.774246 35.105824 
14.897820 40.044907 32.159348 
14.155621 41.133751 32.600559 
15.779209 39.224091 31.116417 
14.987780 42.206825 7.484962 
16.846390 42.014015 8.686535 
18.317093 42.143921 9.795746 
19.335808 42.416714 10.782814 
20.128441 42.280796 11.564137 
21.288685 42.504108 13.206245 
20.957294 42.370975 12.653240 
21.665678 42.681614 14.323391 
21.635979 42.511963 17.002155 
21.225584 42.959866 17.939587 
20.950029 42.971176 19.231640 
20.470737 42.984802 20.684528 
19.873623 43.037022 21.887489 
19.241777 42.978565 23.127251 
18.557140 42.938560 24.375048 
18.371504 41.333237 25.755230 
18.338530 40.028976 26.573254 
18.719364 38.526543 26.771383 
18.308678 36.798088 28.126223 
17.494333 33.371574 30.891800 
16.661118 36.420219 31.213650 
16.758694 35.898094 31.303051 
0.843117 42.403061 38.488586 
3.190668 42.510056 38.996422 
4.470601 42.886375 38.999542 
5.995535 42.867859 38.814137 
7.381798 42.740257 38.332691 
9.355332 42.960987 37.001591 
11.614025 43.465736 34.385796 
16.309881 37.806614 31.106569 
17.636692 42.868069 9.503834 
18.502762 42.707722 10.159256 
20.224171 42.651230 11.862667 
21.143808 43.271072 13.882120 
21.035156 42.758854 13.016705 
21.493090 43.088734 15.282991 
21.230465 43.404015 16.230019 
20.524971 43.125614 20.382763 
17.886452 42.935497 25.432758 
17.985188 39.544174 27.339741 
17.932081 38.322151 28.031439 
17.978542 35.028648 29.390959 
17.769855 34.003819 30.204384 
17.263828 34.997177 30.736389 
2.495373 43.236275 38.741238 
3.597256 43.109283 38.907093 
4.778139 43.011909 38.934635 
5.645268 43.174309 38.771179 
6.526289 43.596512 38.358269 
7.980974 43.314259 37.770412 
8.727289 43.675053 37.123878 
10.474669 43.825775 35.440639 
15.113914 40.431458 31.481203 
14.447186 41.583145 31.779972 
13.666918 42.679474 32.216640 
13.061628 43.676064 32.420334 
16.413284 39.092632 30.080910 
15.304782 43.048931 7.937706 
16.855061 43.329487 9.075943 
18.241043 43.303467 10.160484 
19.545229 43.262791 11.410545 
20.366417 43.380867 12.555958 
21.021692 43.591549 14.207558 
20.970734 43.860703 14.698425 
20.952938 43.703243 17.367117 
20.681871 44.000877 18.288214 
20.277979 44.138218 19.682606 
19.737122 44.089504 21.155098 
19.163176 44.163059 22.249454 
18.511906 44.104820 23.543301 
17.799999 43.990665 24.782955 
17.568089 42.426659 26.264908 
17.539284 41.128708 27.102221 
17.705996 37.634285 28.628252 
17.534500 36.606720 29.385626 
17.607832 35.490738 29.847805 
16.964838 36.646820 30.487728 
1.627175 43.691200 38.501083 
3.807323 43.415344 38.856014 
5.207735 43.555943 38.716099 
7.115144 44.212105 37.834160 
9.168053 44.311661 36.459190 
11.654658 44.400845 33.723263 
15.851282 40.530830 30.092342 
15.111911 41.720512 30.581104 
14.366576 42.798168 31.004984 
12.479309 44.438839 32.655666 
13.592739 43.937126 31.456539 
16.936131 37.822441 29.828569 
16.066017 43.808826 8.689877 
18.839294 43.846699 10.981258 
19.697578 44.002777 12.095295 
20.422077 44.021805 13.322487 
20.755802 44.224449 15.693840 
20.803276 44.076130 14.536194 
20.545736 44.576534 16.741905 
19.799042 44.272961 20.784004 
17.302845 43.747101 25.725708 
17.227962 40.652290 27.786531 
17.219198 39.474678 28.449574 
17.454481 38.055328 28.840813 
3.015580 44.028652 38.662754 
4.419604 44.237705 38.610016 
5.813279 44.250561 38.307426 
7.678215 44.833286 37.286339 
9.566139 44.939461 35.715290 
10.493012 44.959106 34.681641 
12.718969 44.942791 31.930367 
17.070169 38.661259 29.120289 
16.694910 39.278381 29.424026 
15.269300 44.296173 8.332413 
17.127567 44.123425 9.562717 
17.733809 44.674843 10.376736 
18.992466 44.587532 11.665310 
19.776573 44.667622 12.842087 
20.397530 44.580578 14.156872 
20.232273 44.984219 14.993034 
20.270681 44.895336 17.731417 
19.929914 45.146675 18.791084 
19.487482 45.221146 20.110596 
18.970623 45.188618 21.580019 
18.485523 45.034027 22.785088 
17.727283 45.197140 23.978447 
16.891014 45.147900 25.206379 
16.685928 44.561054 25.982130 
16.754993 43.482796 26.664707 
16.776680 42.242016 27.532753 
2.222835 44.622959 38.445297 
3.630660 44.904057 38.484299 
5.027620 44.979229 38.261066 
6.416173 44.894985 37.834827 
8.394426 45.205189 36.617668 
10.779908 45.551567 33.959965 
11.600501 45.612000 32.892700 
16.492714 40.612190 28.874910 
15.830861 41.752991 29.335136 
15.036516 42.894302 29.787142 
14.289772 43.958000 30.282143 
13.499638 45.096264 30.648502 
16.349846 44.633801 9.194153 
18.278198 45.162907 11.243073 
19.091969 45.273384 12.394760 
19.806425 45.282124 13.630451 
20.054333 45.396851 16.074394 
19.810005 45.723106 17.257923 
19.009201 45.354839 21.239307 
18.356789 45.349598 22.715092 
16.477032 41.763199 28.244137 
2.838317 45.548588 38.291435 
4.220277 45.611668 38.198498 
5.630919 45.631313 37.798225 
7.016584 45.492390 37.302361 
7.757935 45.878700 36.680855 
8.985636 45.628197 35.863113 
9.512096 45.989182 35.064323 
11.908925 46.161480 32.101784 
12.643633 46.126560 31.019028 
15.553565 45.125156 8.841293 
16.621452 45.495949 9.778027 
17.492134 45.831276 10.800674 
18.428402 45.859852 11.916393 
19.051285 46.081627 13.033901 
19.706802 45.763985 14.528334 
19.606005 46.127701 15.519051 
19.508614 46.005661 18.163229 
19.158249 46.231987 19.182550 
18.683733 46.322166 20.587435 
18.147657 46.345234 21.902752 
17.562473 46.319759 23.120895 
16.815950 46.208942 24.427877 
16.341167 45.976650 25.323126 
15.849998 45.681343 26.246393 
15.908926 44.523163 27.051861 
16.026941 43.254295 27.939461 
4.976453 46.230526 37.750183 
6.232073 46.242760 37.283634 
8.101310 46.448761 36.075279 
10.158425 46.291592 34.121452 
10.655530 46.640457 33.263783 
15.723570 42.862762 28.685020 
15.057971 44.381256 28.528324 
14.567458 44.324013 29.464563 
14.169748 45.316849 29.339905 
13.412336 46.262043 29.743683 
15.908306 46.204704 9.539089 
16.822136 46.171055 10.262501 
19.155869 46.506680 13.967934 
19.425419 46.414852 16.074867 
19.119133 46.801029 17.810970 
15.765336 46.902176 25.345327 
15.637397 43.960194 27.946415 
3.450587 46.328117 38.030251 
5.594575 46.844486 37.258701 
6.830123 46.795391 36.694145 
8.796134 46.873520 35.181458 
9.478725 47.154499 34.249084 
11.327988 46.893833 32.301918 
11.728371 47.249477 31.424175 
12.504723 47.266041 30.194040 
17.748934 46.511711 11.477966 
18.858826 46.889904 13.679302 
18.543333 46.602348 12.646034 
19.040718 46.972645 14.878948 
19.102274 46.896477 17.480526 
18.685957 47.397614 18.376396 
18.395905 47.356529 19.664194 
17.891798 47.401684 20.989697 
17.294443 47.381786 22.261076 
16.624535 47.322594 23.558571 
15.944643 47.392536 24.603294 
15.011763 46.773849 26.660851 
15.052763 45.572796 27.524895 
4.057467 47.048130 37.653915 
6.118302 47.486412 36.689487 
7.425390 47.295315 36.037540 
8.151955 47.719879 35.135101 
9.967975 47.518982 33.416958 
10.642989 47.761829 32.450348 
14.441762 45.644268 28.572432 
14.020893 46.507008 28.488983 
13.185624 47.365757 28.994947 
17.070961 47.124268 11.025028 
17.925781 47.276798 12.141991 
18.505367 47.722061 14.274879 
18.586727 47.230724 13.422941 
18.733624 47.604382 16.467857 
18.524662 47.973412 16.022684 
14.877485 47.881001 25.824127 
4.660731 47.699570 37.190254 
6.592741 48.134827 36.069870 
6.394125 47.865372 36.328510 
8.433071 48.272900 34.481194 
9.347215 48.223885 33.536766 
11.134387 48.061546 31.521429 
11.638246 48.232647 30.614447 
12.318031 48.370010 29.338903 
16.351467 47.694294 10.607212 
17.244350 47.885811 11.691975 
18.000484 47.937241 12.892418 
18.222153 48.411587 15.055052 
18.392952 48.060841 17.867720 
18.084774 48.337543 18.614719 
17.623386 48.449821 20.059338 
17.026041 48.448177 21.395430 
16.441467 48.326023 22.673397 
15.949985 48.236546 23.665966 
15.506483 48.127331 24.521965 
14.124864 47.713219 27.085686 
14.412084 46.598515 27.727217 
5.262075 48.314655 36.680294 
7.019264 48.779255 35.388767 
9.494431 48.832798 32.764511 
10.425126 48.856270 31.590019 
14.130739 46.950722 27.821144 
13.638834 47.562325 27.980295 
12.953273 48.434490 28.106003 
16.526176 48.457184 11.273045 
17.357718 48.585861 12.409695 
17.987301 48.507660 13.717178 
17.934399 48.928963 17.128433 
15.295452 49.067310 23.739937 
14.605448 48.988323 24.940859 
13.702740 48.336075 27.027117 
13.786348 48.985157 26.146162 
5.859900 48.863007 36.085358 
7.826181 48.946266 34.579201 
8.200543 49.347538 33.838905 
11.489468 48.512032 30.520981 
10.545650 49.538841 30.647964 
11.396210 49.259792 29.748209 
11.993708 49.481384 28.428417 
16.500944 49.291904 11.890751 
17.385975 49.198727 13.199409 
17.870232 48.971653 14.629820 
17.670090 49.335857 15.325315 
17.648788 49.189503 18.284388 
17.457350 49.295925 18.867842 
17.248154 49.363014 19.436884 
16.725628 49.497334 20.525660 
16.137909 49.602539 21.610868 
16.061150 49.314896 22.068163 
16.224951 48.678818 22.560875 
15.747291 49.231899 22.665995 
6.455700 49.373009 35.441582 
6.932356 49.764725 34.784027 
9.382159 49.782524 31.925398 
12.710169 49.473225 27.190655 
16.679707 49.840340 12.724831 
17.340862 49.736439 14.051182 
17.455982 49.715145 16.607447 
17.192545 50.084911 17.568810 
16.806664 50.171177 19.031313 
15.032125 50.128929 22.827665 
14.371229 50.069187 24.054874 
13.693349 49.859756 25.362261 
13.241054 49.697205 26.163935 
10.933193 50.058872 29.420834 
11.471210 50.286331 28.160421 
11.882376 50.347630 27.311163 
16.556259 50.517502 13.470335 
17.160511 50.135605 15.017351 
16.930614 50.486652 15.823242 
16.357504 50.341629 19.977459 
16.120640 50.362743 20.545322 
15.668315 50.319527 21.513346 
12.405031 50.548965 26.316372 
8.910601 50.652824 31.644287 
9.377527 50.839191 30.842548 
9.867229 51.031380 29.843010 
10.558724 51.085735 28.551659 
11.437590 50.860661 27.406639 
16.569769 50.837521 14.490627 
16.693195 50.824734 17.039864 
16.469044 51.020741 17.822521 
16.315683 51.206425 18.027924 
15.935408 51.206829 19.356985 
15.450174 51.244102 20.637543 
14.791946 51.202896 21.919870 
14.074184 51.198673 23.165743 
13.620696 50.947277 24.195095 
13.204711 50.673717 25.123783 
11.212776 51.272514 27.274384 
16.415054 51.262951 15.435110 
16.223526 51.663013 16.375725 
12.945490 51.744728 24.231930 
12.158600 51.683369 25.418859 
15.922710 51.926437 17.478796 
15.539730 52.171841 18.290533 
15.051180 52.233173 19.675938 
14.453272 52.244659 21.049053 
13.418798 51.957748 23.214367 
-29.611460 71.211548 18.028084 
-30.187136 70.783890 17.560810 
-29.870604 71.027512 16.797007 
-28.997171 71.465248 15.236860 
-29.015949 69.860901 13.478657 
-29.753904 68.617020 13.590023 
-29.458902 68.560028 12.773773 
